2.48663,-0.611694,0.0491607,4.23341
2.40863,-0.65271,0.0461607,6.41236
2.32764,-0.698669,0.0461607,4.42017
2.25464,-0.736694,0.0421607,3.61085
2.18463,-0.772705,0.0371609,3.98438
2.10962,-0.813721,0.0351608,5.04273
2.03564,-0.854675,0.0351608,2.92602
1.9696,-0.888672,0.0301609,3.36182
1.90161,-0.924683,0.0281608,5.66528
1.8316,-0.963684,0.0271609,3.29957
1.76764,-0.996704,0.0231607,6.59912
1.70062,-1.03369,0.0221608,3.48633
2.99762,-0.410706,0.0721607,4.3579
2.91064,-0.456665,0.0671608,3.79761
2.82562,-0.500671,0.0621607,3.61085
2.73865,-0.548706,0.0601609,4.29565
2.6546,-0.592712,0.0571609,3.98438
2.57263,-0.636719,0.0541608,3.11278
2.49261,-0.679688,0.0511608,5.29176
2.41364,-0.72168,0.0481608,4.85597
2.33362,-0.764709,0.0461607,4.98046
2.26062,-0.803711,0.0421607,3.05054
2.18463,-0.844666,0.0401609,2.17895
2.11365,-0.88269,0.0361607,5.35401
2.03961,-0.922668,0.0351608,2.5525
1.97064,-0.959717,0.0321608,3.2373
1.89862,-0.998718,0.0311608,5.04273
1.8316,-1.03467,0.0291607,5.16724
1.76862,-1.06769,0.0241609,3.48633
3.10364,-0.424683,0.0761607,5.22949
3.01166,-0.473694,0.0731609,3.79761
2.9176,-0.524719,0.0711608,4.04662
2.83063,-0.570679,0.0671608,3.2373
2.74164,-0.61969,0.0651608,4.42017
2.65765,-0.663696,0.0611608,4.60693
2.57861,-0.705688,0.0571609,3.11278
2.49963,-0.746704,0.0521607,4.54469
2.42163,-0.78772,0.0481608,3.98438
2.34064,-0.831665,0.0471609,3.11278
2.26965,-0.868713,0.0421607,4.29565
2.19263,-0.910706,0.0401609,5.47852
2.11163,-0.956665,0.0421607,3.79761
2.04462,-0.990723,0.0361607,3.61085
1.9696,-1.03168,0.0351608,6.16332
1.90161,-1.06866,0.0331607,3.98438
3.2066,-0.441711,0.0831609,4.42017
3.10864,-0.495667,0.0811608,2.80151
3.01862,-0.542664,0.0761607,3.11278
2.92462,-0.593689,0.0741608,4.04662
2.83765,-0.639709,0.0701609,3.92213
2.7536,-0.682678,0.0651608,5.29176
2.66266,-0.733704,0.0641608,4.04662
2.5816,-0.775696,0.0601609,3.6731
2.50061,-0.818665,0.0571609,4.42017
2.42261,-0.85968,0.0521607,3.48633
2.34363,-0.90271,0.0501609,3.36182
2.2666,-0.943665,0.0481608,3.79761
2.18866,-0.986694,0.0461607,2.5525
2.1156,-1.02472,0.0421607,5.10497
2.04663,-1.06067,0.0381608,5.85205
1.97162,-1.10168,0.0371609,4.73145
3.21362,-0.510681,0.0881608,2.61474
3.12164,-0.558716,0.0831609,4.3579
3.02863,-0.607666,0.0791607,4.29565
2.93762,-0.656677,0.0751607,5.22949
2.84961,-0.702698,0.0711608,4.79369
2.76062,-0.750671,0.0681608,3.98438
2.67163,-0.799683,0.0661607,3.85986
2.58765,-0.843689,0.0631609,2.92602
2.50861,-0.885681,0.0581608,2.86378
2.42865,-0.926697,0.0541608,4.10889
2.34961,-0.969666,0.0511608,4.66918
2.27362,-1.0097,0.0481608,4.3579
2.19562,-1.0517,0.0461607,4.91821
2.12262,-1.0907,0.0421607,3.98438
2.04065,-1.1377,0.0451608,3.54858
3.3316,-0.516724,0.0911608,4.29565
3.23364,-0.568665,0.0871608,3.05054
3.13361,-0.622681,0.0851607,2.5525
3.03961,-0.672668,0.0801609,3.6731
2.94763,-0.72168,0.0771608,4.73145
2.85663,-0.770691,0.0741608,4.79369
2.76965,-0.815674,0.0691607,5.22949
2.68262,-0.862671,0.0661607,3.11278
2.60065,-0.905701,0.0621607,4.98046
2.51562,-0.951721,0.0591607,4.79369
2.43561,-0.993713,0.0551608,5.04273
2.35565,-1.03668,0.0531607,4.54469
2.27466,-1.08069,0.0511608,3.54858
2.19562,-1.12469,0.0501609,4.04662
2.1286,-1.15771,0.0431607,5.97656
3.44763,-0.525696,0.0971608,3.17506
3.3446,-0.580688,0.0931609,1.80543
3.24866,-0.630676,0.0871608,3.2373
3.14661,-0.686707,0.0861609,4.98046
3.05164,-0.736694,0.0821607,3.6731
2.95563,-0.788696,0.0791607,4.04662
2.87061,-0.831665,0.0731609,5.10497
2.78064,-0.8797,0.0701609,3.98438
2.6936,-0.92572,0.0661607,4.73145
2.60461,-0.97467,0.0641608,3.92213
2.52161,-1.01971,0.0621607,3.61085
2.43964,-1.06372,0.0581608,2.73926
2.35864,-1.10669,0.0551608,3.73534
2.2796,-1.14868,0.0521607,4.29565
2.20465,-1.18768,0.0481608,4.85597
3.46265,-0.588684,0.0991607,4.73145
3.35962,-0.643677,0.0951607,1.92994
3.26263,-0.693665,0.0891607,5.04273
3.16565,-0.74469,0.0851607,3.29957
3.06665,-0.798706,0.0821607,4.04662
2.97064,-0.84967,0.0791607,4.10889
2.88062,-0.897705,0.0751607,3.42406
2.78864,-0.947693,0.0721607,4.79369
2.70764,-0.988708,0.0661607,4.10889
2.60962,-1.0437,0.0681608,2.67699
2.52863,-1.08667,0.0631609,6.28784
2.45361,-1.12372,0.0571609,4.04662
2.37463,-1.16467,0.0521607,6.66137
2.28564,-1.2157,0.0541608,2.17895
3.59564,-0.585693,0.102161,3.48633
3.48663,-0.643677,0.0981607,3.42406
3.3786,-0.701721,0.0951607,4.29565
3.27563,-0.756714,0.0911608,2.61474
3.18463,-0.803711,0.0841608,2.92602
3.08063,-0.860718,0.0831609,2.98829
2.98566,-0.910706,0.0791607,3.2373
2.89465,-0.958679,0.0751607,4.42017
2.79565,-1.01471,0.0751607,2.1167
2.71265,-1.0567,0.0691607,4.04662
2.62762,-1.10168,0.0651608,2.80151
2.54163,-1.14771,0.0621607,4.54469
2.45465,-1.19568,0.0601609,4.48242
2.37561,-1.23669,0.0561607,3.11278
3.72266,-0.588684,0.108161,3.17506
3.6156,-0.644714,0.103161,3.98438
3.5036,-0.705688,0.100161,3.6731
3.40265,-0.75769,0.0941608,4.23341
3.2926,-0.818665,0.0931609,3.6731
3.19562,-0.868713,0.0871608,3.92213
3.09863,-0.919678,0.0821607,5.29176
3.00262,-0.970703,0.0791607,6.78588
2.91064,-1.01971,0.0751607,4.3579
2.81165,-1.07471,0.0741608,3.17506
2.72363,-1.12067,0.0701609,2.73926
2.63861,-1.16467,0.0651608,3.05054
2.55066,-1.21271,0.0631609,2.61474
2.46661,-1.25769,0.0601609,3.61085
3.75061,-0.641724,0.108161,4.48242
3.63361,-0.705688,0.105161,2.24122
3.52264,-0.764709,0.101161,4.54469
3.41364,-0.823669,0.0981607,2.36571
3.31061,-0.877686,0.0941608,4.48242
3.21063,-0.930664,0.0891607,5.16724
3.11066,-0.983704,0.0851607,3.98438
3.01263,-1.03772,0.0831609,3.79761
2.91461,-1.0907,0.0801609,4.17114
2.82764,-1.1347,0.0741608,6.2256
2.73462,-1.18567,0.0721607,3.98438
2.65063,-1.2287,0.0661607,3.2373
2.56061,-1.27667,0.0641608,5.85205
3.88263,-0.6427,0.116161,3.42406
3.7666,-0.704712,0.111161,3.29957
3.65363,-0.764709,0.107161,3.17506
3.54565,-0.820679,0.101161,4.73145
3.43762,-0.8797,0.0971608,4.79369
3.32764,-0.939697,0.0961609,3.85986
3.22565,-0.993713,0.0911608,4.60693
3.12262,-1.04871,0.0881608,1.86767
3.02765,-1.09869,0.0831609,3.54858
2.92963,-1.15167,0.0811608,3.42406
2.84161,-1.19672,0.0741608,5.7898
2.74164,-1.25269,0.0751607,2.5525
2.65662,-1.29669,0.0691607,4.04662
3.90564,-0.700684,0.118161,3.29957
3.79364,-0.759705,0.112161,2.92602
3.66864,-0.828674,0.111161,3.05054
3.56061,-0.885681,0.105161,2.98829
3.45563,-0.940674,0.100161,3.85986
3.35364,-0.993713,0.0941608,13.0115
3.2406,-1.05566,0.0931609,4.3579
3.1416,-1.1087,0.0891607,4.98046
3.04163,-1.16272,0.0861609,3.05054
2.94562,-1.21271,0.0811608,5.35401
2.85461,-1.26068,0.0761607,4.91821
2.75861,-1.31268,0.0741608,4.17114
4.06165,-0.686707,0.121161,4.48242
3.92664,-0.761719,0.121161,2.05443
3.81366,-0.820679,0.114161,3.79761
3.69861,-0.880676,0.109161,3.2373
3.58563,-0.940674,0.105161,3.17506
3.47565,-1.00067,0.101161,2.80151
3.36163,-1.06268,0.100161,1.80543
3.25763,-1.11768,0.0951607,2.80151
3.15564,-1.17267,0.0921607,2.98829
3.05463,-1.22571,0.0881608,4.04662
2.95764,-1.27771,0.0841608,3.73534
2.86261,-1.32867,0.0811608,3.54858
2.77563,-1.37268,0.0741608,6.2256
4.07666,-0.751709,0.127161,2.30347
3.9566,-0.814697,0.121161,2.86378
3.83661,-0.8797,0.117161,2.92602
3.7196,-0.940674,0.112161,6.4746
3.60565,-1.00171,0.107161,3.05054
3.49365,-1.06268,0.104161,3.61085
3.38464,-1.11969,0.0991607,4.79369
3.27563,-1.17871,0.0961609,3.17506
3.16962,-1.23669,0.0951607,2.49023
3.07166,-1.28772,0.0891607,3.92213
2.97266,-1.33972,0.0851607,3.61085
2.88062,-1.3877,0.0801609,5.22949
4.23163,-0.740723,0.135161,3.11278
4.10162,-0.810669,0.130161,2.5525
3.97961,-0.874695,0.125161,1.24511
3.8576,-0.939697,0.120161,2.98829
3.74561,-0.997681,0.113161,3.36182
3.6286,-1.06171,0.110161,1.80543
3.51166,-1.12469,0.107161,2.5525
3.39966,-1.18469,0.103161,2.73926
3.29462,-1.24072,0.0991607,3.36182
3.19165,-1.29468,0.0941608,3.85986
3.08563,-1.35168,0.0911608,3.98438
2.99164,-1.4007,0.0861609,4.79369
4.25964,-0.797668,0.137161,2.73926
4.13361,-0.863708,0.131161,2.67699
4.0036,-0.933716,0.127161,2.30347
3.88263,-0.997681,0.122161,2.05443
3.76263,-1.06171,0.117161,1.61866
3.64563,-1.12372,0.113161,3.48633
3.53363,-1.18268,0.108161,4.29565
3.42065,-1.24469,0.105161,3.61085
3.31061,-1.30371,0.101161,2.49023
3.2066,-1.3587,0.0971608,3.85986
3.1076,-1.40967,0.0911608,5.41625
4.28766,-0.853699,0.140161,3.17506
4.15863,-0.921692,0.134161,2.5525
4.03662,-0.985718,0.128161,4.48242
3.91064,-1.05267,0.123161,2.17895
3.78864,-1.11871,0.119161,2.80151
3.66864,-1.18372,0.116161,2.86378
3.55463,-1.24371,0.111161,3.2373
3.44165,-1.30371,0.106161,3.79761
3.32965,-1.36469,0.104161,2.1167
3.22961,-1.41571,0.0971608,2.36571
3.12366,-1.47272,0.0931609,6.78588
4.45264,-0.837708,0.148161,3.11278
4.32062,-0.907715,0.142161,2.92602
4.18665,-0.978699,0.137161,3.11278
4.06366,-1.04266,0.129161,2.86378
3.94061,-1.10767,0.124161,4.29565
3.81262,-1.1767,0.121161,3.36182
3.69861,-1.23572,0.114161,3.36182
3.57666,-1.30267,0.113161,4.29565
3.46362,-1.36267,0.108161,2.49023
3.35364,-1.42169,0.104161,2.80151
3.24762,-1.47772,0.0991607,3.05054
4.49261,-0.886719,0.149161,3.17506
4.3446,-0.967712,0.147161,2.5525
4.21661,-1.03467,0.140161,3.73534
4.09064,-1.10071,0.133161,2.98829
3.96564,-1.16571,0.127161,4.04662
3.83966,-1.2337,0.124161,2.42798
3.7196,-1.29767,0.118161,2.49023
3.59863,-1.36267,0.115161,2.05443
3.49365,-1.41669,0.107161,2.98829
3.37561,-1.48071,0.105161,3.17506
4.52863,-0.938721,0.150161,3.98438
4.38562,-1.01471,0.145161,2.30347
4.25061,-1.08667,0.141161,3.17506
4.11865,-1.15668,0.135161,2.5525
3.98962,-1.22571,0.130161,1.61866
3.8656,-1.29169,0.125161,2.42798
3.74664,-1.3537,0.119161,2.67699
3.62463,-1.4187,0.115161,3.2373
3.51166,-1.4787,0.111161,3.73534
3.39661,-1.54071,0.107161,2.5525
4.69965,-0.920715,0.161161,2.73926
4.55865,-0.993713,0.153161,3.6731
4.42261,-1.0647,0.146161,3.73534
4.2796,-1.1427,0.143161,3.17506
4.15161,-1.20868,0.135161,4.29565
4.01764,-1.2807,0.131161,4.54469
3.88763,-1.35168,0.128161,3.98438
3.76965,-1.41272,0.121161,2.86378
3.65161,-1.47467,0.116161,3.98438
3.53064,-1.54071,0.113161,4.17114
4.73663,-0.97168,0.162161,3.85986
4.58966,-1.04968,0.156161,2.92602
4.44666,-1.12671,0.151161,2.49023
4.30762,-1.19971,0.145161,3.29957
4.17865,-1.26672,0.138161,3.48633
4.0426,-1.3407,0.135161,4.10889
3.91162,-1.41071,0.131161,1.43188
3.79364,-1.47168,0.123161,2.36571
3.66663,-1.54071,0.121161,3.17506
3.55365,-1.59967,0.114161,3.11278
4.76764,-1.02771,0.166161,1.80543
4.62262,-1.1037,0.159161,2.42798
4.47961,-1.17969,0.153161,3.29957
4.33862,-1.2547,0.147161,3.05054
4.19763,-1.32971,0.143161,1.86767
4.07166,-1.39471,0.135161,2.49023
3.9436,-1.46271,0.130161,3.05054
3.81763,-1.52966,0.125161,3.85986
3.69464,-1.59467,0.120161,2.36571
4.96362,-0.993713,0.173161,3.54858
4.80463,-1.07867,0.167161,2.17895
4.65265,-1.15967,0.162161,2.36571
4.51166,-1.2337,0.154161,4.79369
4.36963,-1.30872,0.148161,3.6731
4.22662,-1.38672,0.146161,2.24122
4.0946,-1.45569,0.139161,4.17114
3.96863,-1.52167,0.132161,2.86378
3.83966,-1.5907,0.128161,3.05054
3.71564,-1.65668,0.123161,2.17895
6.13562,-1.38269,1.70416,8.09327
4.99963,-1.04572,0.175161,3.42406
4.83966,-1.13171,0.169161,2.61474
4.69165,-1.20868,0.161161,3.42406
4.53961,-1.29169,0.158161,2.98829
4.39966,-1.36469,0.150161,2.73926
4.25665,-1.44067,0.145161,3.85986
4.12665,-1.50867,0.139161,3.05054
3.9906,-1.58167,0.135161,3.48633
3.86365,-1.64868,0.130161,2.61474
6.13062,-1.43372,1.66916,7.03491
6.19763,-1.35669,1.60416,9.58741
5.03265,-1.10071,0.178161,3.6731
4.87366,-1.18469,0.171161,3.17506
4.71765,-1.26868,0.166161,3.17506
4.57263,-1.34467,0.159161,3.36182
4.42065,-1.4267,0.155161,1.92994
4.28564,-1.4967,0.147161,3.48633
4.15063,-1.56769,0.142161,3.05054
4.01764,-1.63867,0.136161,2.80151
3.89563,-1.70068,0.128161,3.11278
6.08063,-1.54871,1.69316,12.2022
6.15564,-1.4657,1.62816,8.031
6.17065,-1.42072,1.57016,11.1438
6.16364,-1.39069,1.51616,13.2605
5.23663,-1.0647,0.187161,3.73534
5.07263,-1.1507,0.180161,4.73145
4.90265,-1.24268,0.176161,2.30347
4.75262,-1.32172,0.169161,3.36182
4.59766,-1.40466,0.163161,3.6731
4.45764,-1.47668,0.155161,2.92602
4.31561,-1.55267,0.150161,3.2373
4.17865,-1.62469,0.143161,3.17506
4.03961,-1.69867,0.139161,3.42406
6.05463,-1.64667,1.71416,18.8013
6.10962,-1.57672,1.65216,6.66137
6.14862,-1.5177,1.59216,8.84034
6.13562,-1.49072,1.53916,9.96094
6.18866,-1.38568,1.41816,0.186762
5.27765,-1.11371,0.189161,23.844
5.10461,-1.20667,0.185161,2.86378
4.94061,-1.2937,0.178161,3.54858
4.78162,-1.37872,0.172161,3.29957
4.63263,-1.45667,0.165161,2.42798
4.48163,-1.53668,0.160161,1.99219
4.33966,-1.61169,0.153161,2.92602
4.20361,-1.68268,0.147161,2.92602
4.06165,-1.7597,0.143161,3.73534
6.0426,-1.70172,1.67916,5.7898
6.11761,-1.61969,1.61416,15.6262
6.11664,-1.58569,1.55916,5.72753
6.13763,-1.53668,1.50016,7.78199
6.0686,-1.2937,1.05716,11.8286
5.31561,-1.16571,0.194161,30.4431
5.14264,-1.25769,0.188161,3.92213
4.97662,-1.34668,0.181161,3.2373
4.8186,-1.43066,0.175161,4.10889
4.66162,-1.5127,0.169161,2.42798
4.51764,-1.58868,0.161161,3.73534
4.36462,-1.67072,0.158161,1.92994
4.22565,-1.74469,0.151161,2.80151
6.00165,-1.80969,1.70216,13.4473
6.07666,-1.72772,1.63916,10.459
6.09766,-1.67871,1.58016,11.0815
6.08362,-1.65271,1.52616,9.27614
6.0686,-1.37567,1.07516,11.5173
6.04663,-1.35468,1.02116,8.84034
5.35962,-1.21368,0.196161,45.4468
5.17865,-1.31171,0.192161,3.92213
5.01965,-1.39368,0.182161,3.79761
4.85461,-1.48169,0.178161,3.42406
4.69666,-1.56567,0.171161,3.11278
4.54865,-1.6427,0.164161,4.10889
4.39764,-1.72369,0.160161,2.61474
4.26062,-1.79468,0.151161,3.05054
5.9826,-1.90369,1.72316,0.249033
6.01361,-1.84967,1.66416,4.73145
6.06763,-1.7807,1.60216,8.15551
6.06165,-1.74969,1.54716,8.46679
6.07666,-1.4527,1.09216,5.54077
6.00861,-1.46167,1.04616,19.0503
6.13165,-1.34167,0.964161,6.28784
6.06665,-1.31171,0.860161,9.27614
5.58362,-1.16571,0.205161,4.79369
5.4046,-1.26068,0.198161,27.9529
5.22565,-1.35669,0.193161,21.2293
5.0556,-1.44568,0.186161,3.85986
4.89264,-1.53271,0.180161,2.92602
4.73462,-1.61572,0.173161,3.92213
4.57062,-1.70569,0.170161,2.05443
4.42761,-1.77966,0.162161,2.67699
5.95361,-1.9707,1.69016,11.8286
6.03265,-1.88568,1.62516,11.0193
6.0426,-1.84369,1.56816,13.0115
6.03766,-1.81171,1.51416,9.64966
6.00562,-1.54572,1.06416,7.78199
6.03064,-1.49268,1.00216,3.2373
6.11761,-1.39569,0.926161,7.71972
6.06561,-1.39368,0.877161,9.64966
6.06165,-1.36072,0.820161,3.48633
5.63263,-1.21069,0.208161,3.85986
5.44965,-1.30768,0.201161,44.4507
5.26862,-1.40466,0.195161,34.054
5.09662,-1.49567,0.189161,4.29565
4.9306,-1.58368,0.182161,3.79761
4.77161,-1.66766,0.175161,3.48633
4.61261,-1.75269,0.169161,2.42798
4.46362,-1.83069,0.163161,3.2373
5.92664,-2.0697,1.71216,15.564
5.9826,-1.99969,1.65016,5.47852
6.02063,-1.9397,1.58916,9.83642
6.00562,-1.91467,1.53616,11.5173
6.00562,-1.62769,1.08216,7.59523
5.95966,-1.62268,1.03416,12.2644
6.10864,-1.48468,0.946161,4.29565
6.0686,-1.47369,0.895161,10.957
6.01465,-1.47369,0.848161,9.15162
6.13666,-1.35272,0.762161,8.71582
6.12061,-1.32471,0.705161,8.09327
6.06464,-1.32672,0.658161,8.52906
5.69562,-1.24567,0.207161,4.17114
5.49463,-1.35571,0.204161,4.10889
5.31366,-1.45172,0.197161,32.124
5.1416,-1.54266,0.190161,16.3733
4.97864,-1.62769,0.181161,3.6731
4.80762,-1.71967,0.177161,2.49023
4.65161,-1.80267,0.171161,3.17506
4.50165,-1.88068,0.164161,3.42406
5.90765,-2.12872,1.67716,6.2256
5.98364,-2.04572,1.61316,11.3928
5.98462,-2.01068,1.55816,7.09716
6.00464,-1.96167,1.49916,8.77807
6.01965,-1.70068,1.09816,0.49804
5.93866,-1.71771,1.05516,11.8909
6.0296,-1.61969,0.980161,3.85986
6.06665,-1.55768,0.914161,11.6418
6.00061,-1.56567,0.868161,7.65747
6.0686,-1.48169,0.794161,3.42406
6.1156,-1.41168,0.725161,8.84034
6.04761,-1.41968,0.680161,8.031
6.09766,-1.34668,0.607161,4.10889
5.72864,-1.30267,0.214161,3.92213
5.54065,-1.40167,0.206161,4.54469
5.3576,-1.49872,0.199161,60.2014
5.18463,-1.5907,0.193161,28.5132
5.00964,-1.68469,0.187161,2.92602
4.85065,-1.7677,0.179161,3.79761
4.68463,-1.85669,0.175161,3.2373
5.87366,-2.23169,1.70116,10.7703
5.94666,-2.15167,1.63716,7.28395
5.96863,-2.10272,1.57916,13.9453
5.95166,-2.0777,1.52516,11.7041
5.93762,-1.80072,1.07416,9.83642
5.91461,-1.77966,1.02016,6.53687
6.03961,-1.65869,0.938161,12.887
6.00562,-1.64471,0.886161,9.96094
5.96362,-1.63568,0.835161,6.16332
6.0946,-1.50769,0.749161,7.40844
6.05762,-1.49567,0.696161,7.22168
6.0166,-1.48572,0.645161,6.9104
5.78564,-1.34271,0.216161,3.61085
5.59161,-1.44568,0.209161,3.73534
5.40564,-1.54572,0.203161,13.136
5.22961,-1.6377,0.195161,36.6064
5.05963,-1.72668,0.187161,3.54858
4.88965,-1.81769,0.181161,3.05054
4.72162,-1.90869,0.178161,3.6731
5.88165,-2.2757,1.66516,5.22949
5.93762,-2.20471,1.60216,6.59912
5.92963,-2.17468,1.54816,8.59131
5.94464,-1.87872,1.09216,5.04273
5.87762,-1.88672,1.04616,14.3811
6.0036,-1.76569,0.965161,9.40063
6.00262,-1.7287,0.906161,8.46679
5.93561,-1.73669,0.860161,10.7703
6.0556,-1.61572,0.775161,7.28395
6.05963,-1.57568,0.715161,8.84034
5.9906,-1.58569,0.670161,10.3345
5.84265,-1.38269,0.219161,3.42406
5.64264,-1.48969,0.213161,3.92213
5.45465,-1.58972,0.205161,3.79761
5.27161,-1.68768,0.200161,25.9607
5.09662,-1.77966,0.192161,52.5439
4.92761,-1.86969,0.187161,5.10497
4.76764,-1.9527,0.178161,3.2373
5.89764,-2.31268,1.62716,7.34619
5.91162,-2.26868,1.57016,8.77807
5.90765,-2.23572,1.51516,7.22168
5.86865,-1.97467,1.06716,8.40454
5.89264,-1.92267,1.00516,2.80151
5.98566,-1.82269,0.928161,9.40063
5.93463,-1.8197,0.879161,8.09327
5.92963,-1.78571,0.822161,3.79761
6.03961,-1.67267,0.739161,8.52906
5.98566,-1.67169,0.690161,13.8208
5.98065,-1.6377,0.632161,5.41625
6.15063,-1.32068,0.280161,17.8674
5.90363,-1.42072,0.221161,2.73926
5.68866,-1.53772,0.218161,4.3579
5.50665,-1.63269,0.209161,4.42017
5.31763,-1.7337,0.203161,40.9021
5.13861,-1.82971,0.197161,27.7661
4.96564,-1.92169,0.191161,3.48633
5.87262,-2.05371,1.08616,8.28003
5.82764,-2.04871,1.03816,12.2022
5.95361,-1.9267,0.955161,9.0271
5.93665,-1.89972,0.899161,9.0271
5.87561,-1.9057,0.853161,8.59131
6.00464,-1.77869,0.766161,10.0855
5.98761,-1.75171,0.709161,9.7119
5.93164,-1.75372,0.662161,9.83642
6.12964,-1.4187,0.306161,16.2488
6.12262,-1.3847,0.245161,13.385
6.10962,-1.35272,0.184161,13.385
5.7406,-1.58167,0.222161,3.17506
5.54962,-1.68268,0.215161,3.92213
5.36963,-1.77667,0.206161,3.73534
5.18866,-1.87268,0.199161,38.1006
5.01465,-1.9657,0.193161,22.3499
5.80664,-2.14471,1.06216,10.0855
5.89062,-2.0517,0.987161,3.61085
5.93164,-1.98669,0.920161,11.9531
5.86963,-1.9917,0.875161,8.77807
5.92664,-1.91467,0.803161,2.92602
5.98761,-1.83472,0.730161,11.2683
5.92163,-1.84271,0.685161,6.35009
5.9566,-1.77966,0.616161,4.17114
6.35162,-1.38367,0.335161,25.7739
6.12964,-1.50171,0.326161,15.4395
6.09363,-1.48767,0.273161,11.8909
6.08966,-1.45068,0.211161,15.0037
5.80365,-1.61768,0.225161,3.61085
5.60962,-1.7207,0.218161,3.92213
5.41461,-1.82471,0.212161,3.79761
5.23462,-1.91968,0.204161,30.5676
5.05865,-2.0127,0.197161,30.6299
5.81061,-2.22369,1.08216,11.9531
5.77661,-2.20972,1.03016,8.59131
5.9046,-2.08667,0.947161,10.6457
5.87762,-2.06769,0.894161,10.0232
5.82764,-2.0647,0.845161,10.708
5.95862,-1.93671,0.757161,11.5173
5.9306,-1.9187,0.704161,8.65355
5.87964,-1.91669,0.655161,12.0154
6.40564,-1.42767,0.344161,15.2527
6.22864,-1.51367,0.323161,21.5405
6.07562,-1.58368,0.300161,12.2022
6.06366,-1.5517,0.239161,15.2527
6.03363,-1.53271,0.183161,8.71582
5.67163,-1.75769,0.221161,4.54469
5.47662,-1.86072,0.214161,3.92213
5.29364,-1.9577,0.206161,4.48242
5.11261,-2.05469,0.200161,25.2759
5.8316,-2.29169,1.10016,4.79369
5.85565,-2.20172,0.978161,4.66918
5.87964,-2.14868,0.915161,10.5212
5.81165,-2.15771,0.870161,7.9065
5.89563,-2.06268,0.793161,5.29176
5.93365,-1.99872,0.725161,9.15162
5.86865,-2.00568,0.679161,8.71582
5.92664,-1.9267,0.605161,1.74315
6.44861,-1.48071,0.356161,13.5095
6.31366,-1.53571,0.324161,16.8091
6.06665,-1.67169,0.324161,12.4512
6.03961,-1.65167,0.268161,14.2566
6.03363,-1.61572,0.205161,13.5095
5.74164,-1.78772,0.222161,4.10889
5.54565,-1.89172,0.215161,3.85986
5.35065,-1.9967,0.209161,3.6731
5.16663,-2.09467,0.203161,44.8865
5.85266,-2.24969,0.942161,11.0815
5.82166,-2.2337,0.889161,8.15551
5.77661,-2.22668,0.840161,7.22168
5.90564,-2.10071,0.753161,9.27614
5.87262,-2.08472,0.699161,6.78588
5.83362,-2.07568,0.649161,9.7119
6.49963,-1.52771,0.367161,12.0776
6.36664,-1.58167,0.335161,26.0852
6.16962,-1.68066,0.320161,20.7935
6.01764,-1.74969,0.295161,13.6963
6.00861,-1.7157,0.234161,12.7624
5.97864,-1.69769,0.179161,11.2683
5.61261,-1.92468,0.216161,3.6731
5.4176,-2.02966,0.211161,4.10889
5.23163,-2.12769,0.204161,9.08935
5.8576,-2.21667,0.784161,3.85986
5.88062,-2.16272,0.720161,12.3266
5.81561,-2.16968,0.674161,9.0271
5.87164,-2.09167,0.600161,0.49804
6.60461,-1.53668,0.364161,18.1787
6.42065,-1.62671,0.344161,27.8284
6.23663,-1.7157,0.325161,17.9297
6.00763,-1.83868,0.319161,15.0659
5.98663,-1.8147,0.262161,12.8247
5.98163,-1.77869,0.199161,12.0776
5.68262,-1.95569,0.218161,3.17506
5.4906,-2.0567,0.210161,3.05054
5.8576,-2.26068,0.745161,10.3967
5.82062,-2.24872,0.693161,7.65747
5.77765,-2.24072,0.643161,10.3967
6.66162,-1.58167,0.375161,18.0542
6.47162,-1.67371,0.354161,23.595
6.31061,-1.74768,0.329161,22.6611
6.10065,-1.85571,0.317161,29.3848
5.96466,-1.91272,0.288161,14.3188
5.9566,-1.87872,0.227161,12.0154
5.92065,-1.86469,0.174161,11.8909
5.5556,-2.09167,0.211161,4.85597
6.74762,-1.60468,0.378161,36.2329
6.52063,-1.72272,0.365161,13.634
6.35663,-1.79767,0.340161,29.0735
6.17462,-1.88672,0.320161,18.8635
5.94861,-2.00671,0.313161,13.0737
5.93463,-1.97772,0.254161,13.4473
5.92865,-1.94171,0.192161,18.49
5.61761,-2.12769,0.214161,4.73145
6.58466,-1.76172,0.373161,17.8674
6.39966,-1.85071,0.351161,23.4082
6.22766,-1.9317,0.328161,17.9297
6.03461,-2.02966,0.313161,25.0891
5.91162,-2.07672,0.281161,13.6963
5.89966,-2.04468,0.220161,11.8286
5.83661,-2.0517,0.174161,6.9104
6.54065,-1.87567,0.404161,24.5288
6.43262,-1.91071,0.364161,13.2605
6.27466,-1.98071,0.337161,22.7857
6.08966,-2.07172,0.319161,16.8713
5.88763,-2.1767,0.306161,12.6379
5.87665,-2.14471,0.246161,16.3733
5.87164,-2.1087,0.184161,16.3733
6.46265,-1.97272,0.377161,17.6184
6.31262,-2.03772,0.347161,21.5405
6.13666,-2.1217,0.327161,15.0659
5.89264,-2.2547,0.324161,11.8909
5.84863,-2.2467,0.272161,12.8247
5.84265,-2.21069,0.210161,12.9492
6.48865,-2.03772,0.391161,22.5989
6.33563,-2.1037,0.361161,24.4666
6.17664,-2.17468,0.334161,23.4705
5.94763,-2.29871,0.328161,24.7778
5.78961,-2.29169,0.179161,11.7664
6.44965,-2.14771,0.419161,16.5601
6.38666,-2.1507,0.368161,21.167
6.21765,-2.2287,0.343161,23.7817
6.02466,-2.32568,0.327161,22.4121
6.43365,-2.20172,0.377161,17.0581
6.25562,-2.28467,0.353161,14.3811
6.39764,-2.30872,0.405161,22.1008
6.36365,-2.41571,0.433161,9.40063
-2.86938,1.39429,-0.194839,7.84423
-2.87738,1.27631,-0.193839,6.9104
-2.92236,1.36633,-0.197839,8.09327
-2.8844,1.15332,-0.189839,6.4746
-2.92737,1.2403,-0.193839,7.15943
-2.97437,1.3363,-0.200839,6.03881
-3.01837,1.42328,-0.202839,6.9104
-2.89136,1.03333,-0.187839,6.4746
-2.93536,1.1203,-0.191839,8.59131
-2.97839,1.20428,-0.194839,6.72364
-3.02338,1.29633,-0.198839,9.64966
-3.07037,1.3913,-0.203839,7.40844
-2.89935,0.912292,-0.184839,5.72753
-2.94336,1.00232,-0.190839,8.84034
-2.98535,1.08429,-0.192839,6.78588
-3.0304,1.17328,-0.195839,7.09716
-3.07739,1.26733,-0.200839,7.34619
-3.12439,1.36328,-0.206839,6.59912
-3.17236,1.4613,-0.211839,6.97267
-2.86737,0.717285,-0.181839,4.54469
-2.90839,0.799316,-0.184839,7.84423
-2.95038,0.879333,-0.186839,5.41625
-2.99335,0.964294,-0.189839,6.59912
-3.03937,1.0603,-0.196839,5.91432
-3.08337,1.14728,-0.199839,6.10108
-3.13037,1.24231,-0.203839,6.78588
-3.17834,1.33728,-0.207839,7.22168
-3.22638,1.43433,-0.212839,5.85205
-2.87738,0.602295,-0.180839,6.10108
-2.9184,0.686279,-0.184839,8.71582
-2.95935,0.76532,-0.186839,5.10497
-3.00134,0.84729,-0.188839,7.15943
-3.04535,0.934326,-0.191839,7.22168
-3.09039,1.02533,-0.196839,10.3345
-3.13635,1.11633,-0.199839,8.34227
-3.18439,1.21429,-0.206839,8.28003
-3.2334,1.31433,-0.211839,7.28395
-3.28339,1.41333,-0.215839,7.84423
-3.3324,1.51129,-0.219839,6.16332
-2.88739,0.490295,-0.180839,5.85205
-2.92834,0.573303,-0.185839,7.65747
-2.96936,0.651306,-0.186839,5.97656
-3.01239,0.736328,-0.189839,7.34619
-3.05536,0.823303,-0.193839,7.09716
-3.09937,0.908325,-0.195839,8.52906
-3.14435,0.996277,-0.197839,7.59523
-3.19135,1.09229,-0.203839,8.28003
-3.23834,1.1853,-0.206839,6.9104
-3.28839,1.28833,-0.212839,7.59523
-3.33936,1.3913,-0.218839,7.34619
-3.39038,1.49329,-0.222839,7.47071
-2.89838,0.378296,-0.180839,5.97656
-2.93738,0.457336,-0.183839,7.96875
-2.97937,0.537292,-0.185839,5.47852
-3.02136,0.623291,-0.190839,7.03491
-3.06335,0.703308,-0.190839,6.10108
-3.10736,0.790283,-0.193839,6.66137
-3.15234,0.879333,-0.198839,10.0855
-3.19739,0.967285,-0.199839,7.9065
-3.24536,1.06433,-0.204839,7.22168
-3.2934,1.16132,-0.209839,7.03491
-3.34338,1.26129,-0.214839,7.53296
-3.39539,1.36633,-0.219839,7.53296
-3.44739,1.47131,-0.225839,7.15943
-3.50037,1.57629,-0.229839,7.9065
-2.94739,0.339294,-0.180839,5.35401
-2.98834,0.421326,-0.184839,6.41236
-3.0304,0.504333,-0.187839,6.4746
-3.07239,0.586304,-0.189839,5.54077
-3.11536,0.672302,-0.192839,7.40844
-3.15936,0.758301,-0.195839,6.78588
-3.20538,0.849304,-0.198839,8.21778
-3.25134,0.939331,-0.201839,8.09327
-3.29938,1.03729,-0.206839,7.15943
-3.34839,1.1333,-0.209839,7.15943
-3.39838,1.23431,-0.214839,6.66137
-3.45038,1.33929,-0.219839,7.40844
-3.50537,1.45331,-0.227839,7.09716
-3.55939,1.5603,-0.232839,6.03881
-4.78137,1.97333,1.15016,14.8791
-3.03937,0.39032,-0.187839,7.53296
-3.08038,0.467285,-0.187839,5.16724
-3.12439,0.557312,-0.192839,5.97656
-3.1684,0.645325,-0.195839,7.47071
-3.21338,0.734314,-0.199839,8.84034
-3.25836,0.821289,-0.200839,8.65355
-3.3064,0.917297,-0.205839,6.97267
-3.35339,1.0083,-0.207839,7.34619
-3.40436,1.10931,-0.212839,7.71972
-3.45538,1.21033,-0.215839,6.97267
-3.50836,1.3233,-0.224839,9.15162
-3.56335,1.43134,-0.229839,7.47071
-3.61737,1.54028,-0.233839,6.4746
-4.80237,1.90729,1.13216,12.0776
-3.13239,0.438293,-0.190839,5.41625
-3.17639,0.523315,-0.192839,7.71972
-3.22137,0.616333,-0.197839,8.40454
-3.26636,0.702332,-0.199839,6.53687
-3.31335,0.794312,-0.202839,8.28003
-3.36035,0.888306,-0.206839,7.65747
-3.41034,0.988281,-0.210839,8.90259
-3.46136,1.09033,-0.215839,7.59523
-3.51239,1.19434,-0.220839,7.9065
-3.56635,1.30133,-0.225839,6.53687
-3.62238,1.41632,-0.232839,7.09716
-3.67834,1.5293,-0.237839,6.97267
-3.73535,1.64233,-0.241839,7.34619
-4.82135,1.99329,0.999161,11.5173
-4.84235,1.97131,1.04416,16.311
-4.83838,1.88232,1.10416,5.29176
-4.83838,1.80432,1.16116,23.595
-3.18536,0.411316,-0.193839,6.66137
-3.22937,0.499329,-0.197839,7.34619
-3.27435,0.588318,-0.199839,7.47071
-3.32037,0.678284,-0.203839,7.65747
-3.36835,0.77533,-0.207839,8.031
-3.41638,0.866333,-0.208839,7.96875
-3.46539,0.965332,-0.213839,6.78588
-3.51837,1.07031,-0.218839,7.65747
-3.57037,1.17432,-0.222839,6.2256
-3.62439,1.2843,-0.228839,6.72364
-3.68036,1.39532,-0.233839,6.4746
-3.73938,1.51929,-0.241839,7.15943
-3.79736,1.63428,-0.246839,7.65747
-4.83838,1.9173,0.982161,20.3577
-4.86237,1.90332,1.02516,19.1748
-4.87335,1.85333,1.07716,14.2566
-4.85437,1.72833,1.14316,13.5095
-3.28235,0.471313,-0.200839,8.031
-3.32837,0.561279,-0.203839,7.28395
-3.37537,0.654297,-0.206839,6.78588
-3.42334,0.750305,-0.210839,6.9104
-3.47339,0.849304,-0.214839,8.84034
-3.5224,0.945312,-0.216839,7.59523
-3.57336,1.0473,-0.220839,6.97267
-3.62738,1.15533,-0.225839,6.28784
-3.68335,1.26733,-0.230839,6.28784
-3.73938,1.38129,-0.237839,7.15943
-3.79736,1.49829,-0.242839,6.84815
-3.85736,1.61829,-0.248839,7.78199
-4.86035,1.85632,0.961161,11.6418
-4.87836,1.82733,1.00816,10.21
-4.89636,1.79431,1.05616,12.9492
-4.87939,1.67432,1.12116,7.09716
-4.89435,1.63733,1.16916,1.74315
-3.38239,0.537292,-0.206839,8.21778
-3.43036,0.632324,-0.210839,7.03491
-3.47839,0.727295,-0.212839,7.59523
-3.52838,0.826294,-0.216839,7.71972
-3.57935,0.926331,-0.220839,9.7119
-3.63239,1.03131,-0.224839,8.09327
-3.68738,1.14331,-0.230839,7.53296
-3.74237,1.25433,-0.235839,7.34619
-3.80035,1.37128,-0.241839,7.53296
-3.8584,1.4873,-0.245839,6.9104
-3.91937,1.60931,-0.252839,6.9104
-3.98236,1.7373,-0.259839,5.91432
-4.89539,1.75128,0.990161,14.2566
-4.91736,1.73431,1.03416,15.5017
-4.92334,1.66931,1.08816,11.2061
-4.91138,1.56232,1.15116,16.2488
-3.43536,0.509277,-0.208839,7.03491
-3.4834,0.601318,-0.210839,7.34619
-3.53339,0.702332,-0.215839,7.96875
-3.58636,0.813293,-0.223839,8.46679
-3.63635,0.907288,-0.223839,7.53296
-3.68835,1.01129,-0.227839,5.7898
-3.74438,1.12329,-0.232839,7.59523
-3.80035,1.23431,-0.236839,7.9065
-3.8584,1.35132,-0.242839,7.65747
-3.91937,1.4743,-0.249839,6.4746
-3.98236,1.60333,-0.256839,6.97267
-4.0434,1.72632,-0.261839,7.03491
-4.91138,1.67731,0.971161,13.0737
-4.93439,1.65833,1.01616,13.0737
-4.94836,1.61731,1.06516,2.17895
-4.9314,1.49628,1.13116,11.7664
-3.53937,0.582336,-0.216839,9.89869
-3.58838,0.679321,-0.218839,9.21386
-3.63934,0.77832,-0.221839,7.47071
-3.69238,0.883301,-0.225839,7.59523
-3.74738,0.9953,-0.231839,6.72364
-3.80139,1.10229,-0.235839,7.03491
-3.85938,1.21729,-0.239839,6.84815
-3.91937,1.33929,-0.246839,6.78588
-3.97839,1.4563,-0.250839,5.91432
-4.04236,1.58832,-0.259839,6.97267
-4.10535,1.71332,-0.263839,7.09716
-4.73938,1.91632,0.462161,8.28003
-4.76337,1.89728,0.508161,18.9258
-4.80536,1.93231,0.541161,2.92602
-4.94135,1.64032,0.943161,0.560311
-4.95038,1.58331,0.997161,13.136
-4.9704,1.5603,1.04216,9.89869
-4.96735,1.47333,1.10116,6.16332
-4.96637,1.39331,1.15816,22.1631
-3.59235,0.551331,-0.215839,8.96483
-3.6424,0.652283,-0.220839,8.59131
-3.69537,0.756287,-0.224839,7.34619
-3.74939,0.864319,-0.228839,7.28395
-3.80334,0.973328,-0.233839,6.78588
-3.86035,1.0863,-0.237839,6.66137
-3.9184,1.20428,-0.244839,7.47071
-3.97736,1.32031,-0.248839,6.72364
-4.04236,1.45532,-0.257839,6.97267
-4.10437,1.57831,-0.262839,7.9065
-4.16937,1.71033,-0.268839,7.09716
-4.77435,1.80933,0.492161,12.6379
-4.81134,1.82928,0.528161,14.4434
-4.96539,1.50531,0.978161,13.634
-4.98834,1.48932,1.02216,14.0076
-5.00134,1.44434,1.07316,15.0659
-4.9834,1.32129,1.13816,14.5679
-3.69836,0.632324,-0.224839,7.71972
-3.75134,0.735291,-0.227839,7.71972
-3.80536,0.842285,-0.231839,7.71972
-3.86035,0.94928,-0.234839,6.78588
-3.91736,1.06531,-0.239839,6.2256
-3.97736,1.18329,-0.244839,7.15943
-4.03839,1.30829,-0.251839,5.97656
-4.10138,1.43433,-0.257839,6.03881
-4.16736,1.57031,-0.265839,5.97656
-4.23236,1.70129,-0.271839,6.4746
-4.29938,1.83533,-0.276839,6.2256
-4.75635,1.91431,0.295161,16.8091
-4.7934,1.93231,0.332161,14.8791
-4.82635,1.93829,0.373161,9.21386
-4.79034,1.7373,0.472161,16.5601
-4.8194,1.7323,0.514161,14.1943
-4.99438,1.46631,0.951161,8.40454
-5.00537,1.41431,1.00316,11.3928
-5.02435,1.38928,1.04916,14.3188
-5.0174,1.29132,1.11016,6.4746
-5.02136,1.22632,1.16416,20.9802
-3.75336,0.604309,-0.224839,7.9065
-3.80737,0.711304,-0.229839,7.15943
-3.86334,0.82428,-0.234839,7.15943
-3.91937,0.933289,-0.237839,8.28003
-3.97839,1.05432,-0.244839,6.72364
-4.03735,1.17029,-0.248839,7.28395
-4.09937,1.29529,-0.253839,5.7898
-4.16235,1.42432,-0.260839,7.47071
-4.22937,1.55829,-0.267839,7.28395
-4.29639,1.69531,-0.274839,7.15943
-4.36438,1.82928,-0.279839,6.03881
-4.78937,1.89532,0.258161,6.41236
-4.80035,1.83331,0.319161,13.3228
-4.83936,1.85931,0.353161,16.8713
-4.85736,1.82031,0.407161,12.0776
-4.82935,1.6413,0.499161,17.8674
-4.86737,1.66632,0.533161,15.1904
-5.01935,1.3363,0.984161,18.8013
-5.0434,1.32129,1.02816,18.6145
-5.05334,1.26831,1.08016,15.4395
-5.03638,1.14832,1.14616,13.0737
-3.86639,0.700317,-0.235839,7.96875
-3.92139,0.808289,-0.238839,8.59131
-3.97937,0.922302,-0.242839,7.59523
-4.03638,1.03632,-0.246839,8.71582
-4.09735,1.15833,-0.251839,6.78588
-4.16138,1.28632,-0.258839,7.28395
-4.22534,1.41528,-0.263839,7.03491
-4.29236,1.55231,-0.271839,7.09716
-4.36035,1.68829,-0.277839,7.09716
-4.43036,1.83032,-0.284839,6.41236
-4.77734,1.9353,0.116161,16.6846
-4.81635,1.95929,0.152161,18.3032
-4.84235,1.94232,0.201161,8.77807
-4.81036,1.74329,0.302161,14.7546
-4.84937,1.76733,0.338161,18.6768
-4.87836,1.76233,0.382161,10.3967
-4.84235,1.56128,0.479161,17.3694
-4.87537,1.56934,0.519161,18.49
-5.04236,1.28033,0.961161,14.5056
-5.06036,1.24731,1.00916,13.7586
-5.07739,1.21631,1.05616,12.1399
-5.06335,1.0993,1.12116,6.97267
-5.07434,1.05328,1.17116,2.61474
-3.92334,0.676331,-0.236839,7.22168
-3.97937,0.789307,-0.240839,6.9104
-4.03839,0.907288,-0.246839,6.72364
-4.09735,1.02429,-0.250839,6.28784
-4.15936,1.14832,-0.255839,7.34619
-4.22235,1.27429,-0.261839,7.47071
-4.28937,1.41028,-0.268839,6.28784
-4.35736,1.5473,-0.275839,6.35009
-4.42438,1.6803,-0.280839,5.7898
-4.49738,1.82928,-0.288839,5.91432
-4.79034,1.85529,0.0961609,14.0698
-4.82434,1.86328,0.137161,16.4978
-4.86139,1.87933,0.176161,16.2488
-4.82837,1.67932,0.278161,9.7119
-4.85736,1.67133,0.323161,15.9997
-4.89539,1.69434,0.359161,19.6106
-4.90234,1.61932,0.422161,6.78588
-4.88635,1.47833,0.503161,15.6262
-4.92639,1.5083,0.537161,12.1399
-5.07538,1.16931,0.990161,14.7546
-5.09735,1.15131,1.03416,16.062
-5.10437,1.09131,1.08816,9.4629
-3.98236,0.662292,-0.240839,6.59912
-4.03937,0.77533,-0.245839,7.09716
-4.09839,0.893311,-0.249839,7.84423
-4.15936,1.01428,-0.255839,7.22168
-4.2204,1.13428,-0.258839,6.16332
-4.28638,1.26929,-0.265839,7.22168
-4.35437,1.40729,-0.273839,6.2256
-4.42236,1.54431,-0.279839,5.35401
-4.49438,1.68829,-0.286839,6.59912
-4.56537,1.83234,-0.293839,5.91432
-4.83539,1.77332,0.121161,13.0115
-4.87439,1.79828,0.156161,15.4395
-4.89435,1.76233,0.211161,12.6379
-4.86737,1.57928,0.307161,18.1787
-4.90735,1.60632,0.341161,17.6184
-4.93237,1.59033,0.389161,11.5796
-4.89838,1.39429,0.485161,19.5484
-4.93335,1.40833,0.523161,14.4434
-5.09436,1.10229,0.969161,11.3306
-5.11639,1.0813,1.01416,12.5134
-5.13135,1.04132,1.06316,9.33838
-4.10034,0.761292,-0.248839,7.96875
-4.15936,0.88031,-0.253839,7.40844
-4.2204,1.00031,-0.257839,6.10108
-4.28534,1.13031,-0.263839,6.59912
-4.35138,1.26428,-0.270839,7.28395
-4.41937,1.40033,-0.276839,6.41236
-4.48834,1.53931,-0.282839,5.66528
-4.56036,1.68329,-0.289839,6.03881
-4.6344,1.83429,-0.297839,5.60304
-4.84637,1.68628,0.102161,15.1904
-4.88239,1.70233,0.141161,16.6223
-4.91534,1.70532,0.183161,7.59523
-4.88037,1.49731,0.288161,11.8909
-4.91534,1.51031,0.327161,17.6184
-4.95135,1.52429,0.366161,10.8948
-4.92035,1.33832,0.459161,5.60304
-4.94238,1.31232,0.508161,12.8247
-4.98535,1.3493,0.541161,5.54077
-5.11237,1.03131,0.949161,0.0622455
-5.13239,1.00433,0.995161,13.385
-4.15839,0.740295,-0.249839,6.84815
-4.21936,0.862305,-0.254839,7.22168
-4.28235,0.989319,-0.260839,7.09716
-4.34735,1.11829,-0.266839,6.2256
-4.41437,1.2533,-0.272839,7.65747
-4.4834,1.3913,-0.279839,9.52514
-4.55438,1.5343,-0.285839,6.53687
-4.63135,1.69434,-0.296839,5.41625
-4.74139,1.96832,-0.345839,20.6067
-4.77734,1.98029,-0.303839,21.6028
-4.8064,1.96429,-0.252839,21.416
-4.87036,1.6413,0.0721607,6.28784
-4.89038,1.60229,0.128161,13.6963
-4.92938,1.62628,0.163161,16.1243
-4.94537,1.57629,0.222161,9.58741
-4.92334,1.41132,0.313161,16.4355
-4.96234,1.43732,0.348161,14.5056
-4.98535,1.41132,0.398161,11.0815
-4.95337,1.22229,0.492161,17.9297
-4.99036,1.24329,0.528161,13.5718
-4.21936,0.725281,-0.252839,6.66137
-4.28235,0.852295,-0.259839,7.22168
-4.3454,0.977295,-0.263839,7.22168
-4.40936,1.10431,-0.267839,6.10108
-4.47839,1.24133,-0.274839,6.66137
-4.54834,1.38232,-0.280839,6.9104
-4.6214,1.53333,-0.289839,6.41236
-4.70337,1.70831,-0.305839,4.85597
-4.79138,1.90131,-0.325839,16.5601
-4.81836,1.88232,-0.273839,22.6611
-4.84839,1.87231,-0.225839,22.5366
-4.91534,1.98633,-0.215839,24.2798
-4.90137,1.51129,0.111161,15.7507
-4.93939,1.53229,0.148161,15.6262
-4.96936,1.52728,0.193161,12.2644
-4.93536,1.3233,0.295161,17.2449
-4.97137,1.34033,0.333161,17.3071
-5.00537,1.34729,0.374161,9.21386
-4.97137,1.15332,0.470161,13.9453
-4.99835,1.14331,0.514161,13.7586
-5.14337,1.03833,0.790161,0.249033
-4.34137,0.829285,-0.258839,7.40844
-4.40839,0.966309,-0.266839,5.7898
-4.47437,1.09534,-0.270839,6.03881
-4.5434,1.23431,-0.277839,6.16332
-4.61536,1.38031,-0.284839,5.91432
-4.68835,1.52631,-0.290839,5.04273
-4.80139,1.80829,-0.341839,23.0347
-4.83136,1.80133,-0.294839,19.4238
-4.86139,1.78833,-0.244839,25.2136
-4.91034,1.84229,-0.216839,22.5366
-4.97839,1.95929,-0.208839,35.5481
-4.9184,1.4433,0.0871608,11.0193
-4.94739,1.43231,0.134161,16.6223
-4.98535,1.45532,0.170161,17.2449
-4.98236,1.34631,0.245161,6.97267
-4.98035,1.24133,0.319161,14.8791
-5.01935,1.26733,0.354161,13.136
-5.03937,1.23529,0.406161,12.2022
-5.00836,1.04828,0.499161,16.2488
-5.04535,1.07031,0.535161,16.6223
-5.15137,1.02728,0.713161,0.311278
-4.40637,0.82428,-0.263839,6.72364
-4.47235,0.958313,-0.270839,7.84423
-4.53937,1.09033,-0.274839,6.41236
-4.60938,1.22833,-0.279839,6.9104
-4.6814,1.37329,-0.286839,5.60304
-4.77338,1.58331,-0.313839,6.97267
-4.84637,1.7243,-0.316839,21.6028
-4.87335,1.7063,-0.265839,20.9802
-4.9054,1.70233,-0.218839,24.5911
-4.97339,1.8183,-0.209839,31.2524
-5.04138,1.93628,-0.202839,20.4822
-4.95538,1.33533,0.118161,16.3733
-4.99438,1.36029,0.155161,14.7546
-5.0224,1.34534,0.203161,13.0115
-4.99036,1.14929,0.303161,13.9453
-5.02838,1.17029,0.339161,17.4316
-5.05939,1.1723,0.382161,10.21
-5.0224,0.968323,0.480161,13.5718
-4.4704,0.815308,-0.266839,7.53296
-4.53735,0.950317,-0.272839,6.03881
-4.60638,1.08929,-0.279839,6.35009
-4.67737,1.23132,-0.285839,6.66137
-4.75134,1.37933,-0.291839,6.59912
-4.85938,1.64532,-0.337839,18.4277
-4.88739,1.62732,-0.285839,21.3538
-4.91534,1.61133,-0.235839,24.4666
-4.97137,1.68829,-0.214839,26.5832
-5.03735,1.79633,-0.203839,21.1047
-5.11237,1.93732,-0.202839,31.5637
-4.97137,1.26129,0.0971608,13.4473
-5.00336,1.26428,0.139161,15.6262
-5.04236,1.28632,0.177161,15.6262
-5.01135,1.08929,0.278161,8.59131
-5.03735,1.07733,0.323161,16.2488
-5.07739,1.10229,0.359161,15.564
-5.09039,1.04828,0.417161,8.031
-4.60535,0.952332,-0.278839,5.41625
-4.67438,1.08929,-0.282839,6.35009
-4.7464,1.2323,-0.289839,5.47852
-4.86035,1.51929,-0.341839,20.6067
-4.90234,1.55231,-0.307839,22.6611
-4.93036,1.53528,-0.256839,21.665
-4.96936,1.55634,-0.217839,17.8674
-5.03638,1.66833,-0.208839,27.8906
-5.10938,1.80432,-0.205839,23.1592
-5.18036,1.92432,-0.196839,35.0501
-5.01337,1.17029,0.124161,17.6807
-5.05334,1.19733,0.160161,19.8596
-5.07538,1.16431,0.214161,9.89869
-5.04736,0.9823,0.309161,11.5173
-5.08636,1.00732,0.345161,18.4277
-5.11334,0.9953,0.391161,9.40063
-4.67236,0.952332,-0.282839,5.91432
-4.74438,1.09534,-0.288839,6.2256
-4.81836,1.24329,-0.294839,6.35009
-4.91638,1.47632,-0.329839,19.2993
-4.9444,1.4563,-0.276839,23.844
-4.97437,1.44531,-0.227839,24.093
-5.03638,1.54633,-0.215839,32.5598
-5.09735,1.63733,-0.198839,26.8323
-5.17834,1.79431,-0.200839,28.6999
-5.2594,1.94928,-0.202839,20.918
-5.02539,1.08331,0.108161,18.1164
-5.06335,1.10333,0.146161,15.2527
-5.09637,1.10828,0.187161,7.28395
-4.74036,0.951294,-0.284839,5.60304
-4.81537,1.10333,-0.293839,5.85205
-4.92535,1.3783,-0.342839,16.5601
-4.96039,1.3833,-0.298839,18.4277
-4.98834,1.36731,-0.247839,23.844
-5.04034,1.4303,-0.221839,27.8906
-5.10535,1.53833,-0.211839,21.0425
-5.17639,1.66333,-0.204839,26.77
-5.25336,1.80634,-0.202839,27.2681
-5.04834,1.03131,0.0811608,7.59523
-5.07336,1.0083,0.132161,12.7002
-5.11139,1.03229,0.168161,16.5601
-4.81036,0.957336,-0.289839,6.2256
-4.92236,1.2403,-0.342839,18.241
-4.97437,1.30731,-0.319839,19.6106
-5.00238,1.28931,-0.267839,22.9102
-5.03436,1.28632,-0.221839,25.0268
-5.10339,1.40631,-0.214839,29.8206
-5.17139,1.52228,-0.205839,30.8166
-5.24438,1.6543,-0.200839,27.6416
-5.33838,1.84833,-0.213839,24.7778
-4.88135,0.965332,-0.295839,5.60304
-4.98834,1.22632,-0.338839,24.4666
-5.0174,1.21429,-0.289839,19.9219
-5.04437,1.19434,-0.237839,22.0386
-5.09937,1.26929,-0.216839,14.8169
-5.17334,1.40533,-0.214839,24.5911
-5.24036,1.51532,-0.202839,38.0383
-5.3324,1.70532,-0.214839,23.4705
-4.98639,1.09534,-0.342839,18.988
-5.03235,1.13831,-0.311839,19.8596
-5.05939,1.11829,-0.258839,25.8362
-5.0954,1.1283,-0.217839,17.9919
-5.16937,1.26733,-0.216839,27.7661
-5.23236,1.36328,-0.200839,28.0151
-5.29834,1.47229,-0.188839,25.3381
-5.40936,1.72333,-0.218839,30.1941
-5.04535,1.05634,-0.330839,19.9841
-5.07336,1.04132,-0.280839,24.9646
-5.10138,1.02332,-0.228839,28.4509
-5.16736,1.13428,-0.219839,20.1709
-5.22736,1.2243,-0.202839,37.2913
-5.3064,1.37329,-0.202839,26.6455
-5.38837,1.53033,-0.204839,26.521
-5.2334,1.12128,-0.215839,35.3613
-5.30334,1.24231,-0.206839,29.447
-5.37634,1.36829,-0.198839,24.093
-5.45538,1.51428,-0.197839,4.10889
-5.29834,1.10132,-0.207839,33.0579
-5.37439,1.24231,-0.205839,23.9685
-5.45337,1.38733,-0.203839,27.5793
-5.36639,1.09229,-0.204839,23.2214
-5.44537,1.24432,-0.205839,23.7195
-5.52338,1.26428,-0.208839,29.3848
-8.05536,2.27533,-0.758839,1.05835
-8.12939,2.25128,-0.736839,4.10889
-8.10535,2.21729,-0.841839,4.10889
-8.14838,2.20331,-0.771839,4.85597
-8.17737,2.18829,-0.817839,10.8325
-8.22937,2.23529,-0.878839,5.22949
-8.40039,2.0343,-0.495839,2.30347
-8.23639,2.15228,-0.905839,8.15551
-8.31738,2.24731,-0.863839,12.3266
-8.53235,2.30634,-0.610839,1.36963
-8.54138,2.30133,-0.888839,0.684803
-8.47534,2.15332,-0.968839,7.22168
-8.69135,2.19232,-0.992839,9.27614
-8.95337,2.2193,-0.944839,1.18287
-9.32135,2.38831,-0.857839,0.684803
-9.27838,2.31732,-0.964839,0.747074
-9.23938,2.26233,-1.07684,1.43188
-9.35034,2.27631,-0.934839,0.560311
-9.3924,2.30133,-0.991839,3.48633
-9.46136,2.32428,-1.50184,2.42798
-9.01337,2.2973,-1.16884,9.7119
-8.56036,2.3653,-0.979839,2.5525
-9.25635,2.25232,-1.53584,1.43188
-8.52039,2.36829,-1.05784,7.22168
-8.81036,2.22931,-1.09784,8.90259
-8.50238,2.39331,-1.19084,8.96483
-8.29639,2.39429,-1.00684,7.03491
-8.55139,2.2663,-1.03484,12.3889
-9.0224,2.39832,-1.77584,1.92994
-9.06439,2.2373,-1.55684,11.6418
-8.61334,2.29828,-1.24884,10.7703
-8.74036,2.23529,-1.26384,11.3306
-8.51239,2.26929,-1.11284,12.3266
-8.33435,2.29132,-0.986839,9.21386
-8.19836,2.30231,-0.882839,7.15943
-8.34735,2.17828,-0.820839,4.3579
-8.15338,2.20831,-0.693839,10.8948
-8.97235,2.34631,-1.75584,4.98046
-8.37238,2.32629,-1.18484,13.2605
-8.31836,2.28528,-1.07284,18.6145
-8.2204,2.28528,-0.982839,16.062
-8.40637,2.2063,-1.02584,11.7041
-8.24237,2.22528,-0.907839,20.5444
-8.10034,2.23828,-0.801839,7.53296
-8.13538,2.20129,-0.774839,0.249033
-8.10938,2.18329,-0.721839,12.5757
-8.07135,2.39331,-1.12984,8.15551
-8.2724,2.31433,-1.18484,17.9297
-8.19934,2.30634,-1.10684,21.167
-8.24139,2.24133,-1.04084,4.73145
-8.23438,2.21533,-0.994839,11.3306
-8.1554,2.21033,-0.914839,12.2644
-8.16638,2.1803,-0.878839,19.1126
-8.15637,2.13031,-0.788839,15.2527
-8.00037,2.14929,-0.678839,11.8286
-8.21735,2.31732,-1.24884,10.8948
-8.36737,2.25232,-1.27884,11.6418
-7.9964,2.32031,-1.05484,15.0037
-8.21136,2.18329,-1.03084,13.634
-8.17139,2.1673,-0.969839,22.1008
-8.11035,2.15729,-0.898839,12.9492
-8.05737,2.1463,-0.832839,6.10108
-8.13239,2.09833,-0.825839,21.167
-7.95239,2.37128,-1.20284,11.4551
-7.99835,2.33429,-1.18484,12.5757
-7.91736,2.32733,-1.10184,50.3027
-7.99438,2.28131,-1.09784,3.05054
-7.98535,2.25732,-1.05184,16.2488
-8.48737,2.0993,-1.25384,10.5212
-8.36835,2.10333,-1.15184,4.42017
-8.10034,2.14728,-0.982839,1.55639
-8.08136,2.12628,-0.930839,11.0815
-8.08435,2.0993,-0.890839,18.8635
-7.98236,2.2973,-1.22084,7.96875
-7.91736,2.28729,-1.14684,31.0657
-8.34039,2.15533,-1.31684,13.8208
-8.30035,2.11029,-1.20984,6.16332
-8.34839,2.07031,-1.18984,7.53296
-8.17834,2.08832,-1.06584,18.8013
-8.12238,2.07629,-0.996839,11.7664
-8.02539,2.07532,-0.908839,14.9414
-8.13934,2.1933,-1.30384,9.64966
-8.16638,2.16028,-1.27484,9.77418
-8.27435,2.07831,-1.24384,9.21386
-8.13135,2.08832,-1.12984,18.6145
-8.16437,2.05231,-1.10384,2.80151
-8.15735,2.02728,-1.05784,13.0737
-8.16937,1.99731,-1.02184,14.1943
-8.13837,1.97931,-0.964839,19.8596
-7.79437,2.23633,-1.16984,7.47071
-8.06439,2.14532,-1.26784,8.90259
-8.05237,2.12128,-1.21984,8.40454
-7.91534,2.1283,-1.10784,8.65355
-8.02838,2.07428,-1.12384,11.4551
-8.08838,2.03229,-1.11184,22.2876
-8.13538,1.99432,-1.09284,3.73534
-8.12634,1.9693,-1.04584,0.622557
-8.01837,1.97229,-0.952839,15.8753
-7.3714,2.26929,-0.949839,2.5525
-8.22339,2.0683,-1.39684,1.92994
-8.10034,2.07031,-1.28984,16.5601
-8.15338,2.03131,-1.27484,8.65355
-8.13336,1.92828,-1.09584,0.373524
-6.25537,2.3053,-0.331839,1.68091
-6.22137,2.24432,-0.312839,38.5364
-6.41437,2.04028,-0.382839,55.47
-6.33936,1.98828,-0.342839,4.29565
-4.82434,1.99628,1.00016,32.4976
-4.83636,1.97833,1.01816,30.3809
-4.85138,1.95929,1.03516,26.8323
-4.85138,1.94434,1.05916,23.6572
-4.84735,1.93134,1.08316,20.3577
-4.80438,1.9303,1.12316,13.6963
-4.79938,1.9173,1.14716,36.2952
-4.81635,1.89728,1.16416,49.5557
-5.81036,2.1543,-0.240839,16.6223
-6.53137,1.85333,-0.411839,10.5212
-6.98834,1.70129,-0.579839,9.15162
-4.83838,1.95129,0.949161,0.684803
-4.83337,1.93829,0.974161,25.3381
-4.8454,1.92029,0.993161,28.3887
-4.85638,1.90228,1.01116,30.5054
-4.8714,1.8833,1.02816,50.365
-4.87836,1.86633,1.04916,25.7739
-4.87738,1.85229,1.07216,23.4705
-4.85339,1.84534,1.10416,8.65355
-4.82434,1.83929,1.13816,30.1318
-4.83337,1.82233,1.15716,48.0615
-6.36237,1.8233,-0.321839,42.0227
-4.85938,1.86029,0.965161,21.7273
-4.86536,1.8443,0.986161,39.1589
-4.87634,1.82629,1.00416,23.4705
-4.89337,1.80634,1.02016,28.0151
-4.90234,1.78833,1.04016,50.365
-4.90338,1.77332,1.06216,31.1902
-4.89435,1.76233,1.08916,16.1243
-4.84937,1.76233,1.12916,18.1164
-4.85437,1.74628,1.15016,36.2329
-4.86438,1.72833,1.16916,24.5288
-6.58838,1.6803,-0.408839,46.3184
-4.8974,1.7793,0.951161,8.96483
-4.88739,1.76733,0.978161,34.9878
-4.89935,1.74933,0.995161,35.7971
-4.91437,1.73029,1.01316,25.8362
-4.92834,1.7113,1.03016,54.3494
-4.93237,1.69531,1.05216,20.6689
-4.93036,1.68134,1.07616,22.4121
-4.89539,1.67731,1.11216,8.77807
-4.87738,1.66931,1.14216,25.8984
-4.88934,1.65131,1.16016,47.8125
-6.36835,1.66333,-0.291839,66.1157
-6.3924,1.63733,-0.272839,1.1206
-4.91138,1.69031,0.969161,24.1553
-4.92035,1.67328,0.988161,42.7075
-4.93335,1.6543,1.00616,34.1785
-4.95038,1.63428,1.02216,43.0811
-4.9574,1.61829,1.04316,27.7661
-4.95239,1.60431,1.06716,28.8867
-4.94635,1.59229,1.09316,16.4355
-4.9054,1.59033,1.13116,22.5989
-4.91034,1.57428,1.15216,42.7698
-4.91638,1.55829,1.17316,1.55639
-4.7934,1.96033,0.539161,37.727
-6.34137,1.60028,-0.277839,0.124516
-6.6084,1.51733,-0.385839,31.3147
-4.94934,1.60931,0.955161,15.7507
-4.94336,1.59631,0.980161,42.8943
-4.95435,1.57831,0.999161,30.8166
-4.9704,1.55829,1.01516,27.6416
-4.98236,1.54028,1.03316,42.334
-4.9834,1.52533,1.05616,20.918
-4.98438,1.51031,1.07916,22.9724
-4.93939,1.51031,1.11916,10.1477
-4.93036,1.49829,1.14516,26.3342
-4.94336,1.48029,1.16316,51.4856
-4.80536,1.9903,0.371161,19.6728
-4.81635,1.97333,0.389161,29.0112
-4.72437,1.96332,0.487161,32.9334
-4.74036,1.94434,0.502161,42.8943
-4.76038,1.92529,0.514161,42.085
-4.7804,1.90631,0.527161,33.0579
-4.8064,1.88531,0.537161,30.8166
-6.39038,1.49933,-0.271839,67.5476
-4.96539,1.51929,0.972161,25.1514
-4.97534,1.50232,0.991161,31.3147
-4.98737,1.48328,1.00916,32.6221
-5.00134,1.46429,1.02616,48.2483
-5.0094,1.44733,1.04616,27.7661
-5.0094,1.43329,1.06916,27.3926
-4.99139,1.42432,1.09916,12.3889
-4.95636,1.42133,1.13616,18.49
-4.96539,1.40332,1.15516,45.509
-4.7674,1.97229,0.326161,54.6607
-4.78937,1.95233,0.337161,41.8982
-4.81335,1.93231,0.347161,40.5908
-4.8324,1.91333,0.360161,70.4114
-4.84039,1.8963,0.380161,24.7778
-4.84039,1.88129,0.404161,20.8557
-4.75037,1.88531,0.478161,37.1668
-4.7594,1.86932,0.496161,56.4661
-4.77838,1.8493,0.509161,48.6218
-4.79834,1.83032,0.521161,45.1355
-4.82336,1.8103,0.531161,36.3574
-4.84735,1.78931,0.542161,25.2759
-6.39337,1.42932,-0.272839,7.34619
-4.99536,1.44128,0.961161,17.3694
-4.99536,1.42633,0.984161,54.2871
-5.0094,1.40729,1.00116,35.9839
-5.0224,1.38831,1.01916,30.1941
-5.03235,1.37128,1.03816,40.8398
-5.03436,1.35529,1.06016,21.3538
-5.03137,1.34229,1.08416,39.0967
-4.9834,1.34229,1.12616,11.0815
-4.98236,1.32928,1.14916,22.3499
-4.99738,1.30933,1.16616,40.2173
-5.10034,2.05133,-0.207839,45.6958
-5.10938,2.03333,-0.186839,80.9949
-4.81439,1.98328,0.157161,54.4116
