721.284058;-997.533020;-4.117;0.0144043
721.266052;-997.545044;-4.114;0.0170898
721.248047;-997.558044;-4.110;0.0112305
721.231018;-997.563049;-4.117;0.0119629
721.214050;-997.577026;-4.111;0.0139160
721.197021;-997.585022;-4.114;0.0126953
721.179016;-997.592041;-4.118;0.0280762
721.162048;-997.602051;-4.116;0.0168457
721.145020;-997.613037;-4.114;0.0175781
721.128052;-997.622070;-4.116;0.0095215
721.111023;-997.631042;-4.116;0.0129395
721.094055;-997.641052;-4.116;0.0202637
721.077026;-997.646057;-4.122;0.0156250
721.060059;-997.657043;-4.121;0.0122070
721.043030;-997.668030;-4.118;0.0197754
721.026062;-997.677063;-4.119;0.0205078
721.010010;-997.686035;-4.119;0.0136719
720.993042;-997.695068;-4.120;0.0212402
720.976013;-997.708069;-4.115;0.0117188
720.960022;-997.711060;-4.125;0.0920410
720.943054;-997.720032;-4.126;0.1010742
720.926025;-997.730042;-4.124;0.0737305
720.910034;-997.737061;-4.127;0.0979004
720.893005;-997.747070;-4.127;0.1147461
722.245056;-997.080017;-4.089;0.0144043
722.223022;-997.092041;-4.089;0.0156250
722.200012;-997.105042;-4.088;0.0166016
722.178040;-997.118042;-4.088;0.0190430
722.155029;-997.132019;-4.086;0.0153809
722.133057;-997.146057;-4.084;0.0114746
722.114014;-997.152039;-4.092;0.0122070
722.091064;-997.166077;-4.089;0.0144043
722.069031;-997.178040;-4.089;0.0161133
722.049011;-997.187073;-4.093;0.0134277
722.027039;-997.201050;-4.091;0.0214844
722.007019;-997.210022;-4.094;0.0141602
721.987061;-997.220032;-4.096;0.0170898
721.965027;-997.234070;-4.093;0.0148926
721.945007;-997.245056;-4.094;0.0114746
721.924011;-997.257019;-4.093;0.0122070
721.904053;-997.265076;-4.098;0.0151367
721.885010;-997.276062;-4.099;0.0173340
721.864014;-997.288025;-4.098;0.0139160
721.844055;-997.297058;-4.101;0.0134277
721.824036;-997.309021;-4.100;0.0158691
721.804016;-997.321045;-4.099;0.0153809
721.785034;-997.330017;-4.102;0.0141602
721.765015;-997.342041;-4.101;0.0153809
721.746033;-997.351074;-4.104;0.0185547
721.726013;-997.362061;-4.103;0.0180664
721.708008;-997.370056;-4.107;0.0229492
721.687012;-997.383057;-4.104;0.0151367
721.668030;-997.396057;-4.102;0.0146484
721.650024;-997.402039;-4.108;0.0151367
721.630005;-997.413025;-4.107;0.0146484
721.612061;-997.423035;-4.109;0.0141602
721.592041;-997.436035;-4.106;0.0136719
721.574036;-997.443054;-4.111;0.0153809
721.555054;-997.453064;-4.112;0.0112305
721.537048;-997.465027;-4.109;0.0212402
721.518005;-997.473022;-4.113;0.0187988
721.499023;-997.486023;-4.109;0.0131836
721.481018;-997.495056;-4.111;0.0170898
721.463013;-997.506042;-4.110;0.0183105
721.444031;-997.517029;-4.109;0.0190430
721.427063;-997.525024;-4.113;0.0312500
721.408020;-997.536072;-4.112;0.0166016
721.390015;-997.545044;-4.113;0.0197754
721.372009;-997.555054;-4.113;0.0102539
721.354004;-997.565063;-4.113;0.0129395
721.337036;-997.572021;-4.117;0.0180664
721.318054;-997.586060;-4.112;0.0109863
721.301025;-997.593018;-4.116;0.0144043
721.283020;-997.604065;-4.114;0.0175781
721.266052;-997.612061;-4.117;0.0117188
721.248047;-997.622070;-4.118;0.0117188
721.231018;-997.632019;-4.117;0.0151367
721.213013;-997.644043;-4.115;0.0119629
721.196045;-997.652039;-4.116;0.0178223
721.179016;-997.659058;-4.120;0.0146484
721.161011;-997.673035;-4.115;0.0107422
721.144043;-997.681030;-4.117;0.0114746
721.127014;-997.690063;-4.117;0.0195312
721.110046;-997.699036;-4.119;0.0087891
721.093018;-997.710022;-4.116;0.0141602
721.076050;-997.718018;-4.119;0.0156250
721.058044;-997.729065;-4.116;0.0141602
721.042053;-997.738037;-4.118;0.0170898
721.025024;-997.749023;-4.116;0.0114746
721.008057;-997.759033;-4.114;0.0151367
720.991028;-997.765076;-4.120;0.0217285
720.974060;-997.774048;-4.121;0.0122070
722.340027;-997.102051;-4.078;0.0151367
722.318054;-997.112061;-4.082;0.0197754
722.295044;-997.124023;-4.082;0.0178223
722.271057;-997.139038;-4.081;0.0163574
722.249023;-997.151062;-4.081;0.0131836
722.229004;-997.159058;-4.087;0.0229492
722.205017;-997.174072;-4.084;0.0161133
722.182007;-997.187073;-4.084;0.0151367
722.161011;-997.197021;-4.087;0.0173340
722.139038;-997.211060;-4.086;0.0146484
722.118042;-997.219055;-4.090;0.0146484
722.096008;-997.233032;-4.088;0.0202637
722.075012;-997.244019;-4.090;0.0153809
722.052063;-997.258057;-4.087;0.0178223
722.031006;-997.270020;-4.087;0.0134277
722.013062;-997.274048;-4.097;0.0117188
721.991028;-997.288025;-4.095;0.0219727
721.970032;-997.299072;-4.095;0.0146484
721.948059;-997.313049;-4.092;0.0131836
721.927063;-997.326050;-4.092;0.0119629
721.907043;-997.335022;-4.094;0.0166016
721.888062;-997.342041;-4.100;0.0166016
721.867004;-997.355042;-4.099;0.0231934
721.848022;-997.363037;-4.103;0.0122070
721.827026;-997.376038;-4.100;0.0163574
721.807007;-997.386047;-4.102;0.0180664
721.787048;-997.400024;-4.099;0.0124512
721.768005;-997.407043;-4.105;0.0183105
721.748047;-997.419067;-4.103;0.0131836
721.728027;-997.430054;-4.102;0.0119629
721.708008;-997.443054;-4.101;0.0168457
721.690063;-997.450073;-4.106;0.0168457
721.671021;-997.460022;-4.107;0.0139160
721.651062;-997.471069;-4.107;0.0205078
721.632019;-997.481018;-4.107;0.0195312
721.614014;-997.489075;-4.112;0.0163574
721.594055;-997.502075;-4.108;0.0122070
721.575012;-997.511047;-4.111;0.0295410
721.556030;-997.524048;-4.107;0.0141602
721.538025;-997.531067;-4.112;0.0180664
721.518005;-997.546021;-4.107;0.0156250
721.500061;-997.554077;-4.109;0.0187988
721.482056;-997.564026;-4.110;0.0168457
721.463013;-997.575073;-4.109;0.0202637
721.445007;-997.584045;-4.112;0.0214844
721.426025;-997.596069;-4.109;0.0146484
721.409058;-997.602051;-4.115;0.0183105
721.390015;-997.613037;-4.114;0.0185547
721.372009;-997.623047;-4.114;0.0134277
721.353027;-997.637024;-4.109;0.0224609
721.336060;-997.646057;-4.111;0.0168457
721.318054;-997.654053;-4.113;0.0148926
721.300049;-997.669067;-4.106;0.0085449
721.283020;-997.673035;-4.115;0.0195312
721.265015;-997.682068;-4.116;0.0097656
721.247009;-997.694031;-4.114;0.0144043
721.230042;-997.704041;-4.113;0.0104980
721.212036;-997.712036;-4.116;0.0158691
721.195007;-997.721069;-4.117;0.0170898
721.177063;-997.732056;-4.115;0.0192871
721.160034;-997.741028;-4.116;0.0158691
721.143005;-997.749023;-4.120;0.0158691
721.125061;-997.763062;-4.112;0.0153809
721.108032;-997.769043;-4.119;0.0173340
721.091064;-997.781067;-4.115;0.0126953
721.074036;-997.789062;-4.117;0.0153809
722.420044;-997.126038;-4.079;0.0170898
722.396057;-997.139038;-4.079;0.0151367
722.372009;-997.152039;-4.080;0.0183105
722.349060;-997.165039;-4.080;0.0158691
722.325012;-997.177063;-4.081;0.0222168
722.303040;-997.189026;-4.082;0.0119629
722.280029;-997.202026;-4.083;0.0173340
722.258057;-997.213074;-4.086;0.0187988
722.233032;-997.229065;-4.081;0.0153809
722.212036;-997.238037;-4.085;0.0148926
722.189026;-997.252075;-4.085;0.0161133
722.165039;-997.267029;-4.082;0.0117188
722.145020;-997.276062;-4.086;0.0124512
722.124023;-997.286072;-4.089;0.0168457
722.102051;-997.297058;-4.091;0.0151367
722.080017;-997.311035;-4.089;0.0136719
722.058044;-997.321045;-4.091;0.0144043
722.036011;-997.334045;-4.090;0.0126953
722.016052;-997.343018;-4.093;0.0148926
721.995056;-997.355042;-4.093;0.0173340
721.972046;-997.370056;-4.090;0.0180664
721.953064;-997.379028;-4.094;0.0141602
721.933044;-997.387024;-4.098;0.0202637
721.913025;-997.396057;-4.102;0.0119629
721.892029;-997.408020;-4.101;0.0124512
721.871033;-997.422058;-4.099;0.0207520
721.852051;-997.429077;-4.104;0.0156250
721.830017;-997.444031;-4.100;0.0122070
721.810059;-997.456055;-4.099;0.0117188
721.791016;-997.463074;-4.104;0.0087891
721.771057;-997.475037;-4.104;0.0092773
721.751038;-997.485046;-4.105;0.0153809
721.731018;-997.497070;-4.104;0.0178223
721.711060;-997.509033;-4.103;0.0124512
721.692017;-997.516052;-4.108;0.0292969
721.671021;-997.532043;-4.101;0.0114746
721.653015;-997.538025;-4.108;0.0139160
721.633057;-997.552063;-4.104;0.0168457
721.614014;-997.560059;-4.108;0.0163574
721.595032;-997.572021;-4.106;0.0139160
721.576050;-997.582031;-4.107;0.0158691
721.557007;-997.594055;-4.106;0.0122070
721.539062;-997.599060;-4.113;0.0146484
721.519043;-997.613037;-4.109;0.0217285
721.500061;-997.624023;-4.108;0.0205078
721.483032;-997.632019;-4.111;0.0156250
721.463013;-997.645020;-4.108;0.0131836
721.445007;-997.654053;-4.110;0.0119629
721.427063;-997.661072;-4.114;0.0227051
721.409058;-997.671021;-4.115;0.0158691
721.390015;-997.685059;-4.110;0.0126953
721.373047;-997.690063;-4.117;0.0146484
721.354004;-997.701050;-4.116;0.0158691
721.336060;-997.713074;-4.113;0.0192871
721.318054;-997.723022;-4.113;0.0148926
721.300049;-997.732056;-4.115;0.0212402
721.282043;-997.742065;-4.115;0.0148926
721.264038;-997.753052;-4.114;0.0219727
721.247009;-997.761047;-4.117;0.0202637
721.229004;-997.772034;-4.115;0.0144043
721.212036;-997.781067;-4.116;0.0112305
721.194031;-997.792053;-4.115;0.0158691
721.176025;-997.800049;-4.118;0.0151367
721.159058;-997.811035;-4.116;0.0151367
721.141052;-997.822021;-4.113;0.0158691
722.501038;-997.151062;-4.075;0.0102539
722.477051;-997.165039;-4.076;0.0187988
722.453064;-997.176025;-4.079;0.0292969
722.426025;-997.194031;-4.074;0.0109863
722.404053;-997.204041;-4.078;0.0161133
722.380005;-997.217041;-4.079;0.0207520
722.357056;-997.229065;-4.080;0.0202637
722.332031;-997.244019;-4.079;0.0153809
722.310059;-997.255066;-4.082;0.0205078
722.288025;-997.264038;-4.086;0.0588379
722.262024;-997.283020;-4.080;0.0214844
722.242004;-997.291077;-4.086;0.0156250
722.217041;-997.307068;-4.082;0.0131836
722.195007;-997.318054;-4.084;0.0185547
722.174011;-997.327026;-4.088;0.0175781
722.153015;-997.337036;-4.091;0.0148926
722.127014;-997.357056;-4.082;0.0097656
722.107056;-997.364075;-4.088;0.0190430
722.086060;-997.374023;-4.091;0.0141602
722.063049;-997.390076;-4.088;0.0219727
722.041016;-997.401062;-4.089;0.0153809
722.020020;-997.411072;-4.092;0.0166016
721.999023;-997.423035;-4.092;0.0109863
721.977051;-997.436035;-4.090;0.0122070
721.955017;-997.449036;-4.089;0.0180664
721.936035;-997.457031;-4.094;0.0163574
721.915039;-997.468018;-4.095;0.0153809
721.895020;-997.477051;-4.098;0.0146484
721.875061;-997.488037;-4.100;0.0124512
721.854004;-997.500061;-4.099;0.0097656
721.833008;-997.512024;-4.099;0.0109863
721.814026;-997.519043;-4.104;0.0148926
721.794006;-997.530029;-4.104;0.0185547
721.773010;-997.543030;-4.102;0.0109863
721.753052;-997.555054;-4.101;0.0129395
721.733032;-997.564026;-4.104;0.0163574
721.713013;-997.577026;-4.103;0.0183105
721.694031;-997.585022;-4.106;0.0278320
721.674011;-997.597046;-4.105;0.0197754
721.654053;-997.610046;-4.102;0.0168457
721.636047;-997.617065;-4.108;0.0156250
721.616028;-997.627075;-4.109;0.0144043
721.596008;-997.641052;-4.104;0.0212402
721.577026;-997.651062;-4.105;0.0122070
721.559021;-997.659058;-4.110;0.0134277
721.538025;-997.675049;-4.103;0.0134277
721.521057;-997.680054;-4.110;0.0146484
721.501038;-997.692078;-4.109;0.0141602
721.483032;-997.701050;-4.110;0.0168457
721.465027;-997.709045;-4.114;0.0161133
721.446045;-997.719055;-4.114;0.0180664
721.426025;-997.735046;-4.107;0.0119629
721.409058;-997.742065;-4.112;0.0131836
721.390015;-997.751038;-4.113;0.0195312
721.372009;-997.762024;-4.112;0.0183105
721.354004;-997.772034;-4.113;0.0170898
721.336060;-997.780029;-4.116;0.0209961
721.317017;-997.793030;-4.112;0.0197754
721.300049;-997.802063;-4.113;0.0161133
721.281006;-997.815063;-4.110;0.0136719
721.264038;-997.822021;-4.115;0.0136719
721.246033;-997.833069;-4.112;0.0180664
721.228027;-997.842041;-4.114;0.0156250
722.586060;-997.175049;-4.072;0.0275879
722.563049;-997.186035;-4.075;0.0163574
722.536011;-997.201050;-4.074;0.0202637
722.512024;-997.213074;-4.076;0.0161133
722.487061;-997.227051;-4.076;0.0195312
722.462036;-997.242065;-4.076;0.0192871
722.439026;-997.252075;-4.080;0.0183105
722.412048;-997.270020;-4.075;0.0214844
722.390015;-997.279053;-4.080;0.0175781
722.363037;-997.297058;-4.076;0.0161133
722.341064;-997.308044;-4.079;0.0151367
722.318054;-997.320068;-4.080;0.0178223
722.293030;-997.334045;-4.080;0.0175781
722.271057;-997.345032;-4.082;0.0170898
722.247009;-997.359070;-4.081;0.0183105
722.225037;-997.370056;-4.084;0.0187988
722.202026;-997.382019;-4.084;0.0126953
722.179016;-997.395020;-4.085;0.0163574
722.157043;-997.407043;-4.086;0.0170898
722.135010;-997.418030;-4.087;0.0166016
722.114014;-997.428040;-4.090;0.0161133
722.091064;-997.440063;-4.091;0.0192871
722.070007;-997.452026;-4.092;0.0168457
722.046021;-997.467041;-4.088;0.0136719
722.024048;-997.481018;-4.086;0.0119629
722.004028;-997.489075;-4.092;0.0114746
721.982056;-997.502075;-4.090;0.0178223
721.961060;-997.512024;-4.093;0.0222168
721.940063;-997.525024;-4.092;0.0090332
721.920044;-997.533020;-4.096;0.0219727
721.897034;-997.549072;-4.092;0.0129395
721.878052;-997.556030;-4.097;0.0129395
721.856018;-997.571045;-4.094;0.0097656
721.837036;-997.577026;-4.101;0.0200195
721.816040;-997.591064;-4.097;0.0161133
721.795044;-997.602051;-4.098;0.0185547
721.775024;-997.614075;-4.097;0.0185547
721.756042;-997.620056;-4.103;0.0185547
721.735046;-997.634033;-4.100;0.0122070
721.715027;-997.645020;-4.101;0.0192871
721.695007;-997.657043;-4.100;0.0107422
721.676025;-997.666077;-4.103;0.0166016
721.656006;-997.676025;-4.104;0.0131836
721.637024;-997.687073;-4.104;0.0222168
721.617004;-997.698059;-4.104;0.0102539
721.598022;-997.709045;-4.104;0.0229492
721.579041;-997.717041;-4.107;0.0205078
721.560059;-997.729065;-4.107;0.0212402
721.540039;-997.741028;-4.104;0.0122070
721.522034;-997.749023;-4.109;0.0183105
721.503052;-997.759033;-4.110;0.0202637
721.484009;-997.769043;-4.110;0.0185547
721.465027;-997.782043;-4.107;0.0209961
721.447021;-997.788025;-4.114;0.0148926
721.427063;-997.803040;-4.107;0.0124512
721.409058;-997.813049;-4.107;0.0107422
721.390015;-997.824036;-4.107;0.0202637
721.372009;-997.833069;-4.109;0.0100098
721.354004;-997.843018;-4.109;0.0139160
721.335022;-997.853027;-4.109;0.0139160
721.317017;-997.864075;-4.108;0.0141602
721.299011;-997.873047;-4.111;0.0134277
722.673035;-997.200073;-4.063;0.0139160
722.649048;-997.211060;-4.067;0.0102539
722.623047;-997.224060;-4.069;0.0224609
722.598022;-997.236023;-4.071;0.0151367
722.572021;-997.252075;-4.071;0.0200195
722.547058;-997.265076;-4.072;0.0173340
722.523010;-997.276062;-4.076;0.0168457
722.496033;-997.292053;-4.074;0.0126953
722.471008;-997.306030;-4.074;0.0244141
722.447021;-997.319031;-4.076;0.0236816
722.422058;-997.332031;-4.076;0.0158691
722.397034;-997.347046;-4.076;0.0192871
722.375061;-997.355042;-4.082;0.0454102
722.350037;-997.371033;-4.079;0.0195312
722.325012;-997.386047;-4.077;0.0146484
722.301025;-997.399048;-4.077;0.0092773
722.278015;-997.412048;-4.079;0.0195312
722.256042;-997.422058;-4.082;0.0134277
722.234009;-997.430054;-4.088;0.0236816
722.210022;-997.446045;-4.085;0.0197754
722.187012;-997.459045;-4.084;0.0183105
722.163025;-997.473022;-4.083;0.0173340
722.141052;-997.485046;-4.085;0.0148926
722.118042;-997.498047;-4.084;0.0139160
722.098022;-997.504028;-4.092;0.0219727
722.074036;-997.520020;-4.088;0.0231934
722.053040;-997.531067;-4.089;0.0253906
722.029053;-997.547058;-4.086;0.0217285
722.008057;-997.556030;-4.089;0.0114746
721.986023;-997.570068;-4.088;0.0175781
721.965027;-997.580017;-4.090;0.0175781
721.944031;-997.590027;-4.092;0.0231934
721.924011;-997.600037;-4.094;0.0173340
721.903015;-997.611023;-4.096;0.0161133
721.883057;-997.621033;-4.099;0.0156250
721.860046;-997.638062;-4.092;0.0187988
721.841064;-997.645020;-4.098;0.0136719
721.818054;-997.661072;-4.092;0.0136719
721.799011;-997.669067;-4.097;0.0097656
721.779053;-997.678040;-4.100;0.0156250
721.757019;-997.694031;-4.095;0.0173340
721.739014;-997.699036;-4.102;0.0126953
721.719055;-997.710022;-4.104;0.0197754
721.698059;-997.722046;-4.103;0.0141602
721.678040;-997.735046;-4.100;0.0146484
721.658020;-997.745056;-4.101;0.0231934
721.638062;-997.758057;-4.100;0.0173340
721.619019;-997.767029;-4.102;0.0173340
721.599060;-997.777039;-4.103;0.0126953
721.581055;-997.786072;-4.106;0.0168457
721.560059;-997.800049;-4.101;0.0134277
721.542053;-997.807068;-4.107;0.0163574
721.522034;-997.821045;-4.103;0.0158691
721.504028;-997.829041;-4.105;0.0141602
721.484009;-997.841064;-4.104;0.0158691
721.465027;-997.851074;-4.106;0.0153809
721.447021;-997.861023;-4.105;0.0148926
721.428040;-997.871033;-4.107;0.0168457
721.410034;-997.879028;-4.111;0.0112305
721.391052;-997.890076;-4.109;0.0144043
722.744019;-997.226074;-4.066;0.0222168
722.714050;-997.246033;-4.062;0.0124512
722.691040;-997.253052;-4.070;0.0202637
722.660034;-997.275024;-4.064;0.0129395
722.634033;-997.288025;-4.065;0.0144043
722.611023;-997.298035;-4.071;0.0136719
722.584045;-997.312073;-4.072;0.0202637
722.557007;-997.329041;-4.070;0.0151367
722.533020;-997.341064;-4.072;0.0180664
722.506042;-997.356018;-4.072;0.0163574
722.482056;-997.369019;-4.073;0.0102539
722.456055;-997.384033;-4.072;0.0195312
722.432007;-997.394043;-4.076;0.0268555
722.407043;-997.409058;-4.076;0.0212402
722.382019;-997.423035;-4.075;0.0114746
722.358032;-997.436035;-4.077;0.0214844
722.334045;-997.449036;-4.077;0.0175781
722.310059;-997.463074;-4.077;0.0212402
722.287048;-997.474060;-4.079;0.0212402
722.263062;-997.488037;-4.079;0.0126953
722.239014;-997.501038;-4.079;0.0148926
722.215027;-997.515076;-4.078;0.0129395
722.193054;-997.525024;-4.082;0.0270996
722.172058;-997.535034;-4.086;0.0214844
722.149048;-997.547058;-4.086;0.0214844
722.125061;-997.562073;-4.084;0.0205078
722.104004;-997.572021;-4.088;0.0222168
722.081055;-997.583069;-4.089;0.0158691
722.058044;-997.599060;-4.086;0.0134277
722.035034;-997.613037;-4.084;0.0107422
722.014038;-997.623047;-4.087;0.0173340
721.991028;-997.636047;-4.086;0.0141602
721.970032;-997.647034;-4.087;0.0104980
721.948059;-997.659058;-4.087;0.0070801
721.927063;-997.671021;-4.088;0.0139160
721.907043;-997.680054;-4.091;0.0161133
721.885010;-997.693054;-4.090;0.0146484
721.865051;-997.702026;-4.093;0.0117188
721.844055;-997.712036;-4.096;0.0175781
721.821045;-997.729065;-4.089;0.0183105
721.802063;-997.738037;-4.093;0.0097656
721.782043;-997.747070;-4.096;0.0153809
721.762024;-997.758057;-4.097;0.0144043
721.741028;-997.769043;-4.097;0.0126953
721.721008;-997.781067;-4.097;0.0139160
721.701050;-997.790039;-4.100;0.0126953
721.680054;-997.803040;-4.098;0.0122070
721.661011;-997.813049;-4.099;0.0158691
721.642029;-997.822021;-4.103;0.0195312
721.621033;-997.833069;-4.102;0.0183105
721.602051;-997.844055;-4.103;0.0195312
721.582031;-997.857056;-4.100;0.0131836
721.563049;-997.866028;-4.103;0.0148926
721.543030;-997.878052;-4.101;0.0119629
721.524048;-997.887024;-4.104;0.0168457
721.505005;-997.898071;-4.104;0.0151367
721.486023;-997.909058;-4.103;0.0158691
721.467041;-997.917053;-4.106;0.0153809
722.814026;-997.257019;-4.064;0.0146484
722.785034;-997.273071;-4.063;0.0156250
722.760010;-997.285034;-4.067;0.0161133
722.730042;-997.302063;-4.066;0.0239258
722.704041;-997.316040;-4.068;0.0131836
722.679016;-997.327026;-4.071;0.0173340
722.650024;-997.345032;-4.069;0.0156250
722.623047;-997.361023;-4.069;0.0180664
722.594055;-997.379028;-4.065;0.0092773
722.571045;-997.388062;-4.072;0.0117188
722.543030;-997.405029;-4.069;0.0146484
722.519043;-997.416077;-4.074;0.0114746
722.494019;-997.429077;-4.075;0.0195312
722.468018;-997.444031;-4.074;0.0148926
722.443054;-997.457031;-4.075;0.0222168
722.418030;-997.471069;-4.076;0.0268555
722.395020;-997.481018;-4.080;0.0219727
722.368042;-997.499023;-4.076;0.0173340
722.344055;-997.511047;-4.078;0.0192871
722.318054;-997.527039;-4.075;0.0170898
722.295044;-997.539062;-4.078;0.0195312
722.271057;-997.551025;-4.079;0.0292969
722.248047;-997.564026;-4.080;0.0214844
722.224060;-997.577026;-4.080;0.0234375
722.201050;-997.590027;-4.080;0.0092773
722.177063;-997.603027;-4.081;0.0185547
722.155029;-997.613037;-4.084;0.0170898
722.133057;-997.625061;-4.086;0.0229492
722.109009;-997.639038;-4.084;0.0185547
722.086060;-997.652039;-4.083;0.0175781
722.066040;-997.661072;-4.089;0.0175781
722.041016;-997.679077;-4.082;0.0139160
722.020020;-997.687073;-4.087;0.0151367
721.997009;-997.702026;-4.084;0.0183105
721.976013;-997.712036;-4.087;0.0119629
721.954041;-997.724060;-4.088;0.0136719
721.934021;-997.733032;-4.091;0.0170898
721.912048;-997.746033;-4.090;0.0209961
721.890015;-997.758057;-4.090;0.0144043
721.868042;-997.770020;-4.090;0.0168457
721.849060;-997.778076;-4.095;0.0246582
721.827026;-997.791077;-4.093;0.0270996
721.807007;-997.801025;-4.096;0.0202637
721.786011;-997.811035;-4.098;0.0153809
721.765015;-997.824036;-4.096;0.0170898
721.745056;-997.835022;-4.098;0.0102539
721.726013;-997.842041;-4.103;0.0156250
721.705017;-997.854065;-4.103;0.0156250
721.685059;-997.867065;-4.101;0.0144043
721.665039;-997.876038;-4.103;0.0151367
721.644043;-997.890076;-4.100;0.0129395
721.624023;-997.900024;-4.102;0.0200195
721.606018;-997.906067;-4.108;0.0158691
721.585022;-997.921021;-4.103;0.0178223
721.565063;-997.932068;-4.104;0.0178223
721.546021;-997.942078;-4.105;0.0161133
722.890015;-997.282043;-4.064;0.0180664
722.859009;-997.301025;-4.062;0.0083008
722.831055;-997.315063;-4.065;0.0083008
722.802063;-997.331055;-4.064;0.0144043
722.776062;-997.344055;-4.068;0.0104980
722.746033;-997.361023;-4.067;0.0146484
722.717041;-997.379028;-4.064;0.0153809
722.690063;-997.393066;-4.066;0.0144043
722.660034;-997.412048;-4.063;0.0095215
722.636047;-997.422058;-4.068;0.0156250
722.609009;-997.437073;-4.068;0.0185547
722.582031;-997.452026;-4.069;0.0222168
722.556030;-997.465027;-4.071;0.0183105
722.532043;-997.477051;-4.074;0.0229492
722.505005;-997.492065;-4.073;0.0190430
722.479004;-997.506042;-4.074;0.0151367
722.452026;-997.523071;-4.071;0.0192871
722.427063;-997.536072;-4.073;0.0153809
722.404053;-997.546021;-4.077;0.0195312
722.380005;-997.559021;-4.078;0.0190430
722.355042;-997.572021;-4.080;0.0190430
722.329041;-997.589050;-4.076;0.0144043
722.305054;-997.602051;-4.077;0.0219727
722.281006;-997.614075;-4.079;0.0109863
722.257019;-997.626038;-4.081;0.0180664
722.232056;-997.643066;-4.077;0.0141602
722.209045;-997.654053;-4.080;0.0178223
722.185059;-997.668030;-4.079;0.0180664
722.163025;-997.677063;-4.083;0.0207520
722.140015;-997.691040;-4.083;0.0175781
722.115051;-997.707031;-4.080;0.0141602
722.093018;-997.717041;-4.083;0.0205078
722.072021;-997.728027;-4.085;0.0241699
722.049011;-997.741028;-4.085;0.0104980
722.026062;-997.754028;-4.085;0.0175781
722.003052;-997.767029;-4.084;0.0107422
721.982056;-997.778076;-4.086;0.0173340
721.959045;-997.790039;-4.086;0.0129395
721.939026;-997.800049;-4.090;0.0168457
721.916016;-997.815063;-4.086;0.0114746
721.895020;-997.826050;-4.087;0.0175781
721.874023;-997.835022;-4.090;0.0205078
721.854004;-997.843018;-4.096;0.0134277
721.832031;-997.859070;-4.091;0.0100098
721.810059;-997.870056;-4.092;0.0112305
721.790039;-997.880066;-4.094;0.0119629
721.769043;-997.892029;-4.094;0.0153809
721.750061;-997.900024;-4.099;0.0136719
721.729004;-997.911072;-4.100;0.0187988
721.708008;-997.922058;-4.100;0.0190430
721.687012;-997.936035;-4.098;0.0126953
721.668030;-997.945068;-4.100;0.0236816
721.649048;-997.952026;-4.106;0.0202637
721.627014;-997.968018;-4.100;0.0134277
722.964050;-997.313049;-4.058;0.0185547
722.936035;-997.326050;-4.062;0.0212402
722.908020;-997.340027;-4.065;0.0183105
722.878052;-997.356018;-4.066;0.0136719
722.848022;-997.375061;-4.064;0.0156250
722.817017;-997.393066;-4.062;0.0217285
722.790039;-997.406067;-4.065;0.0166016
722.762024;-997.421021;-4.067;0.0295410
722.736023;-997.433044;-4.071;0.0200195
722.705017;-997.452026;-4.067;0.0280762
722.678040;-997.467041;-4.068;0.0197754
722.649048;-997.484070;-4.067;0.0141602
722.621033;-997.500061;-4.066;0.0192871
722.596008;-997.513062;-4.069;0.0187988
722.571045;-997.524048;-4.072;0.0190430
722.543030;-997.541077;-4.071;0.0112305
722.519043;-997.551025;-4.076;0.0219727
722.492004;-997.568054;-4.074;0.0249023
722.466064;-997.582031;-4.075;0.0205078
722.438049;-997.600037;-4.071;0.0119629
722.414062;-997.612061;-4.074;0.0144043
722.392029;-997.620056;-4.080;0.0290527
722.365051;-997.638062;-4.076;0.0234375
722.340027;-997.650024;-4.078;0.0175781
722.315063;-997.665039;-4.077;0.0371094
722.291016;-997.678040;-4.078;0.0187988
722.265015;-997.694031;-4.076;0.0134277
722.242004;-997.705017;-4.079;0.0222168
722.219055;-997.717041;-4.080;0.0170898
722.195007;-997.730042;-4.081;0.0249023
722.173035;-997.739075;-4.086;0.0266113
722.146057;-997.759033;-4.078;0.0170898
722.125061;-997.768066;-4.083;0.0185547
722.101013;-997.781067;-4.083;0.0229492
722.079041;-997.793030;-4.084;0.0151367
722.056030;-997.805054;-4.085;0.0158691
722.035034;-997.814026;-4.090;0.0200195
722.013062;-997.827026;-4.090;0.0239258
721.990051;-997.839050;-4.090;0.0219727
721.967041;-997.853027;-4.089;0.0161133
721.945007;-997.866028;-4.088;0.0200195
721.923035;-997.878052;-4.089;0.0185547
721.898010;-997.897034;-4.081;0.0126953
721.881042;-997.899048;-4.092;0.0241699
721.859009;-997.911072;-4.093;0.0126953
721.837036;-997.924072;-4.092;0.0183105
721.816040;-997.935059;-4.093;0.0178223
721.794006;-997.950073;-4.090;0.0139160
721.773010;-997.961060;-4.090;0.0163574
721.754028;-997.968018;-4.097;0.0197754
721.732056;-997.981018;-4.095;0.0131836
721.713013;-997.989075;-4.099;0.0170898
723.074036;-997.324036;-4.052;0.0092773
723.044006;-997.339050;-4.055;0.0158691
723.009033;-997.361023;-4.051;0.0112305
722.979004;-997.377075;-4.053;0.0078125
722.952026;-997.390076;-4.057;0.0158691
722.922058;-997.405029;-4.058;0.0190430
722.893005;-997.419067;-4.061;0.0131836
722.862061;-997.439026;-4.058;0.0163574
722.834045;-997.452026;-4.062;0.0124512
722.804016;-997.470032;-4.061;0.0168457
722.778015;-997.482056;-4.065;0.0178223
722.751038;-997.495056;-4.068;0.0104980
722.720032;-997.514038;-4.065;0.0146484
722.692017;-997.530029;-4.065;0.0178223
722.665039;-997.544067;-4.067;0.0156250
722.638062;-997.557068;-4.070;0.0270996
722.607056;-997.578064;-4.064;0.0131836
722.583008;-997.588074;-4.070;0.0166016
722.554016;-997.607056;-4.066;0.0107422
722.528015;-997.620056;-4.068;0.0209961
722.505005;-997.629028;-4.074;0.0173340
722.475037;-997.650024;-4.069;0.0192871
722.451050;-997.661072;-4.072;0.0126953
722.425049;-997.676025;-4.071;0.0190430
722.401062;-997.686035;-4.076;0.0205078
722.373047;-997.706055;-4.070;0.0158691
722.351013;-997.713074;-4.078;0.0261230
722.325012;-997.730042;-4.075;0.0136719
722.301025;-997.741028;-4.078;0.0246582
722.277039;-997.754028;-4.079;0.0222168
722.252014;-997.769043;-4.079;0.0205078
722.226013;-997.784058;-4.077;0.0166016
722.202026;-997.797058;-4.077;0.0161133
722.180054;-997.808044;-4.080;0.0161133
722.157043;-997.820068;-4.082;0.0158691
722.131042;-997.836060;-4.078;0.0129395
722.111023;-997.843018;-4.086;0.0222168
722.086060;-997.859070;-4.083;0.0239258
722.064026;-997.870056;-4.085;0.0146484
722.041016;-997.883057;-4.085;0.0114746
722.019043;-997.893066;-4.088;0.0122070
721.997009;-997.906067;-4.088;0.0190430
721.973022;-997.919067;-4.087;0.0175781
721.952026;-997.930054;-4.089;0.0112305
721.930054;-997.941040;-4.091;0.0236816
721.907043;-997.957031;-4.087;0.0270996
721.886047;-997.967041;-4.089;0.0212402
721.863037;-997.981018;-4.088;0.0126953
721.843018;-997.990051;-4.091;0.0158691
721.820007;-998.004028;-4.089;0.0117188
721.799011;-998.015076;-4.091;0.0112305
723.157043;-997.350037;-4.046;0.0183105
723.126038;-997.366028;-4.049;0.0207520
723.093018;-997.384033;-4.049;0.0200195
723.060059;-997.403076;-4.048;0.0097656
723.032043;-997.416077;-4.053;0.0151367
723.000061;-997.433044;-4.054;0.0136719
722.970032;-997.450073;-4.055;0.0119629
722.940063;-997.466064;-4.056;0.0117188
722.908020;-997.484070;-4.055;0.0146484
722.877014;-997.502075;-4.054;0.0085449
722.852051;-997.512024;-4.061;0.0200195
722.820007;-997.532043;-4.058;0.0207520
722.792053;-997.545044;-4.061;0.0117188
722.761047;-997.564026;-4.058;0.0126953
722.737061;-997.574036;-4.065;0.0219727
722.705017;-997.594055;-4.062;0.0119629
722.678040;-997.608032;-4.064;0.0146484
722.651062;-997.622070;-4.065;0.0112305
722.620056;-997.641052;-4.062;0.0158691
722.597046;-997.650024;-4.068;0.0205078
722.568054;-997.668030;-4.066;0.0224609
722.543030;-997.680054;-4.070;0.0244141
722.515015;-997.696045;-4.068;0.0222168
722.488037;-997.712036;-4.067;0.0148926
722.464050;-997.722046;-4.073;0.0153809
722.435059;-997.742065;-4.067;0.0185547
722.411011;-997.752075;-4.072;0.0190430
722.382019;-997.772034;-4.066;0.0163574
722.361023;-997.779053;-4.074;0.0124512
722.335022;-997.794067;-4.074;0.0207520
722.310059;-997.807068;-4.075;0.0166016
722.286011;-997.820068;-4.076;0.0146484
722.261047;-997.834045;-4.076;0.0139160
722.235046;-997.849060;-4.075;0.0119629
722.212036;-997.861023;-4.077;0.0229492
722.188049;-997.875061;-4.077;0.0297852
722.164062;-997.886047;-4.079;0.0156250
722.140015;-997.902039;-4.076;0.0158691
722.117004;-997.912048;-4.080;0.0190430
722.093018;-997.926025;-4.080;0.0222168
722.071045;-997.937073;-4.081;0.0202637
722.049011;-997.948059;-4.084;0.0197754
722.024048;-997.963074;-4.082;0.0205078
722.001038;-997.977051;-4.081;0.0141602
721.980042;-997.986023;-4.085;0.0231934
721.957031;-997.999023;-4.085;0.0122070
721.935059;-998.012024;-4.085;0.0161133
721.911011;-998.027039;-4.081;0.0102539
721.891052;-998.034058;-4.088;0.0161133
723.244019;-997.375061;-4.040;0.0131836
723.210022;-997.394043;-4.041;0.0151367
723.177063;-997.411072;-4.042;0.0214844
723.143005;-997.430054;-4.042;0.0109863
723.112061;-997.446045;-4.044;0.0102539
723.081055;-997.461060;-4.047;0.0197754
723.054016;-997.473022;-4.053;0.0205078
723.023010;-997.489075;-4.055;0.0178223
722.989014;-997.509033;-4.053;0.0173340
722.959045;-997.525024;-4.055;0.0119629
722.926025;-997.545044;-4.053;0.0166016
722.898010;-997.558044;-4.057;0.0153809
722.865051;-997.578064;-4.054;0.0139160
722.838013;-997.591064;-4.058;0.0166016
722.809021;-997.606018;-4.060;0.0187988
722.779053;-997.623047;-4.060;0.0246582
722.754028;-997.633057;-4.066;0.0222168
722.723022;-997.652039;-4.063;0.0166016
722.694031;-997.669067;-4.063;0.0158691
722.667053;-997.683044;-4.065;0.0168457
722.639038;-997.697021;-4.066;0.0146484
722.613037;-997.709045;-4.070;0.0180664
722.584045;-997.727051;-4.068;0.0170898
722.556030;-997.744019;-4.067;0.0187988
722.530029;-997.756042;-4.070;0.0156250
722.505005;-997.768066;-4.074;0.0119629
722.476013;-997.787048;-4.069;0.0214844
722.451050;-997.799072;-4.072;0.0148926
722.425049;-997.813049;-4.074;0.0168457
722.398010;-997.828064;-4.073;0.0185547
722.373047;-997.842041;-4.073;0.0195312
722.347046;-997.856018;-4.074;0.0183105
722.321045;-997.871033;-4.074;0.0119629
722.297058;-997.884033;-4.075;0.0166016
722.272034;-997.897034;-4.076;0.0185547
722.247009;-997.910034;-4.077;0.0197754
722.222046;-997.925049;-4.076;0.0134277
722.199036;-997.937073;-4.078;0.0178223
722.173035;-997.953064;-4.076;0.0241699
722.148010;-997.967041;-4.076;0.0156250
722.127014;-997.975037;-4.082;0.0156250
722.104004;-997.987061;-4.083;0.0136719
722.079041;-998.002075;-4.081;0.0180664
722.055054;-998.017029;-4.079;0.0170898
722.032043;-998.029053;-4.080;0.0129395
722.009033;-998.043030;-4.079;0.0141602
721.987061;-998.053040;-4.082;0.0141602
721.965027;-998.064026;-4.084;0.0195312
723.300049;-997.417053;-4.034;0.0212402
723.267029;-997.433044;-4.037;0.0153809
723.231018;-997.454041;-4.036;0.0151367
723.200012;-997.469055;-4.041;0.0117188
723.164062;-997.490051;-4.039;0.0136719
723.135010;-997.503052;-4.044;0.0256348
723.104004;-997.518066;-4.048;0.0163574
723.071045;-997.536072;-4.048;0.0104980
723.043030;-997.549072;-4.053;0.0124512
723.008057;-997.571045;-4.050;0.0134277
722.977051;-997.586060;-4.052;0.0175781
722.947021;-997.602051;-4.054;0.0156250
722.917053;-997.617065;-4.056;0.0185547
722.886047;-997.634033;-4.057;0.0129395
722.859009;-997.646057;-4.061;0.0175781
722.826050;-997.668030;-4.058;0.0136719
722.797058;-997.683044;-4.059;0.0153809
722.767029;-997.699036;-4.060;0.0119629
722.741028;-997.710022;-4.065;0.0197754
722.710022;-997.729065;-4.063;0.0117188
722.683044;-997.743042;-4.066;0.0122070
722.654053;-997.760071;-4.064;0.0175781
722.625061;-997.777039;-4.064;0.0151367
722.597046;-997.792053;-4.064;0.0139160
722.568054;-997.809021;-4.063;0.0085449
722.543030;-997.819031;-4.068;0.0200195
722.517029;-997.834045;-4.069;0.0163574
722.489014;-997.849060;-4.069;0.0180664
722.463013;-997.863037;-4.071;0.0263672
722.437012;-997.878052;-4.071;0.0163574
722.412048;-997.889038;-4.075;0.0205078
722.385010;-997.905029;-4.074;0.0202637
722.360046;-997.918030;-4.075;0.0236816
722.331055;-997.938049;-4.070;0.0129395
722.309021;-997.945068;-4.077;0.0202637
722.282043;-997.962036;-4.074;0.0185547
722.259033;-997.972046;-4.079;0.0180664
722.232056;-997.990051;-4.075;0.0146484
722.209045;-998.001038;-4.077;0.0197754
722.182007;-998.018066;-4.074;0.0163574
722.159058;-998.030029;-4.076;0.0129395
722.135010;-998.042053;-4.078;0.0119629
722.112061;-998.055054;-4.079;0.0166016
722.088013;-998.068054;-4.079;0.0275879
722.064026;-998.081055;-4.080;0.0158691
722.040039;-998.095032;-4.079;0.0153809
723.397034;-997.434021;-4.032;0.0156250
723.361023;-997.453064;-4.033;0.0097656
723.326050;-997.472046;-4.034;0.0117188
723.289062;-997.493042;-4.034;0.0178223
723.256042;-997.510071;-4.036;0.0178223
723.224060;-997.526062;-4.039;0.0146484
723.189026;-997.546021;-4.039;0.0117188
723.156006;-997.563049;-4.040;0.0144043
723.122009;-997.582031;-4.041;0.0146484
723.091064;-997.597046;-4.044;0.0139160
723.062012;-997.610046;-4.049;0.0112305
723.028015;-997.631042;-4.047;0.0268555
723.000061;-997.642029;-4.054;0.0112305
722.966064;-997.663025;-4.051;0.0078125
722.933044;-997.682068;-4.050;0.0078125
722.905029;-997.695068;-4.055;0.0195312
722.873047;-997.714050;-4.053;0.0129395
722.847046;-997.725037;-4.060;0.0151367
722.814026;-997.744019;-4.058;0.0139160
722.786011;-997.758057;-4.060;0.0205078
722.755005;-997.776062;-4.059;0.0129395
722.728027;-997.788025;-4.064;0.0280762
722.694031;-997.812073;-4.057;0.0209961
722.668030;-997.823059;-4.062;0.0139160
722.641052;-997.837036;-4.064;0.0153809
722.611023;-997.856018;-4.061;0.0112305
722.584045;-997.868042;-4.065;0.0156250
722.555054;-997.885071;-4.063;0.0288086
722.529053;-997.899048;-4.065;0.0136719
722.501038;-997.915039;-4.065;0.0163574
722.473022;-997.932068;-4.064;0.0129395
722.447021;-997.945068;-4.065;0.0156250
722.423035;-997.955017;-4.071;0.0256348
722.396057;-997.971069;-4.070;0.0163574
722.368042;-997.987061;-4.068;0.0183105
722.345032;-997.998047;-4.073;0.0166016
722.319031;-998.012024;-4.073;0.0153809
722.293030;-998.027039;-4.073;0.0100098
722.268005;-998.040039;-4.074;0.0173340
722.242004;-998.055054;-4.073;0.0112305
722.219055;-998.066040;-4.077;0.0180664
722.192017;-998.083069;-4.073;0.0324707
722.170044;-998.092041;-4.079;0.0336914
722.144043;-998.108032;-4.076;0.0190430
723.494019;-997.454041;-4.024;0.0134277
723.458008;-997.473022;-4.026;0.0178223
723.419006;-997.496033;-4.025;0.0156250
723.383057;-997.515076;-4.027;0.0109863
723.350037;-997.531067;-4.030;0.0141602
723.315063;-997.549072;-4.033;0.0168457
723.278015;-997.570068;-4.032;0.0112305
723.245056;-997.587036;-4.035;0.0136719
723.209045;-997.607056;-4.034;0.0141602
723.180054;-997.620056;-4.041;0.0161133
723.142029;-997.643066;-4.036;0.0078125
723.113037;-997.656067;-4.042;0.0141602
723.082031;-997.671021;-4.046;0.0166016
723.047058;-997.692078;-4.044;0.0126953
723.015015;-997.709045;-4.045;0.0100098
722.985046;-997.724060;-4.049;0.0180664
722.954041;-997.741028;-4.049;0.0166016
722.923035;-997.756042;-4.052;0.0139160
722.891052;-997.775024;-4.052;0.0102539
722.862061;-997.789062;-4.054;0.0146484
722.832031;-997.804077;-4.057;0.0192871
722.802063;-997.821045;-4.057;0.0163574
722.772034;-997.838074;-4.057;0.0161133
722.740051;-997.857056;-4.055;0.0214844
722.714050;-997.868042;-4.061;0.0136719
722.683044;-997.887024;-4.058;0.0144043
722.656006;-997.900024;-4.062;0.0192871
722.627014;-997.915039;-4.063;0.0109863
722.598022;-997.932068;-4.062;0.0141602
722.571045;-997.946045;-4.064;0.0227051
722.542053;-997.964050;-4.062;0.0161133
722.515015;-997.978027;-4.063;0.0131836
722.490051;-997.989075;-4.068;0.0136719
722.460022;-998.008057;-4.065;0.0146484
722.435059;-998.020020;-4.068;0.0202637
722.407043;-998.037048;-4.066;0.0214844
722.382019;-998.048035;-4.070;0.0219727
722.356018;-998.063049;-4.071;0.0239258
722.329041;-998.078064;-4.070;0.0122070
722.306030;-998.088074;-4.075;0.0200195
722.278015;-998.106018;-4.071;0.0229492
722.252014;-998.121033;-4.070;0.0119629
722.228027;-998.132019;-4.074;0.0166016
722.203064;-998.146057;-4.073;0.0170898
723.559021;-997.491028;-4.018;0.0136719
723.520020;-997.512024;-4.020;0.0187988
723.486023;-997.528076;-4.024;0.0114746
723.446045;-997.552063;-4.022;0.0185547
723.411011;-997.569031;-4.026;0.0156250
723.374023;-997.589050;-4.027;0.0122070
723.341064;-997.605042;-4.031;0.0107422
723.302063;-997.629028;-4.028;0.0090332
723.268005;-997.646057;-4.031;0.0124512
723.233032;-997.665039;-4.032;0.0139160
723.201050;-997.681030;-4.036;0.0153809
723.172058;-997.693054;-4.043;0.0146484
723.136047;-997.714050;-4.041;0.0170898
723.103027;-997.731018;-4.043;0.0161133
723.068054;-997.751038;-4.042;0.0097656
723.036011;-997.768066;-4.044;0.0083008
723.006042;-997.782043;-4.048;0.0212402
722.977051;-997.795044;-4.053;0.0256348
722.940063;-997.820068;-4.047;0.0104980
722.910034;-997.835022;-4.050;0.0129395
722.881042;-997.849060;-4.053;0.0156250
722.850037;-997.866028;-4.054;0.0131836
722.818054;-997.885071;-4.053;0.0141602
722.791016;-997.896057;-4.058;0.0158691
722.758057;-997.916077;-4.055;0.0151367
722.729004;-997.932068;-4.056;0.0131836
722.699036;-997.948059;-4.057;0.0136719
722.671021;-997.963074;-4.059;0.0207520
722.642029;-997.979065;-4.060;0.0148926
722.613037;-997.995056;-4.060;0.0227051
722.585022;-998.010071;-4.061;0.0190430
722.556030;-998.026062;-4.061;0.0114746
722.527039;-998.044067;-4.059;0.0156250
722.503052;-998.052063;-4.067;0.0244141
722.472046;-998.073059;-4.061;0.0146484
722.449036;-998.082031;-4.068;0.0241699
722.418030;-998.102051;-4.063;0.0104980
722.394043;-998.113037;-4.067;0.0139160
722.369019;-998.125061;-4.071;0.0219727
722.342041;-998.141052;-4.070;0.0173340
722.318054;-998.152039;-4.074;0.0234375
722.288025;-998.173035;-4.067;0.0109863
723.670044;-997.500061;-4.015;0.0102539
723.631042;-997.521057;-4.018;0.0151367
723.592041;-997.541077;-4.020;0.0139160
723.551025;-997.565063;-4.019;0.0161133
723.515015;-997.582031;-4.023;0.0139160
723.477051;-997.603027;-4.024;0.0083008
723.439026;-997.624023;-4.024;0.0144043
723.401062;-997.645020;-4.025;0.0087891
723.366028;-997.663025;-4.027;0.0153809
723.331055;-997.680054;-4.031;0.0100098
723.292053;-997.704041;-4.028;0.0148926
723.260010;-997.719055;-4.032;0.0124512
723.225037;-997.738037;-4.034;0.0161133
723.190063;-997.757019;-4.035;0.0136719
723.156006;-997.775024;-4.036;0.0095215
723.122009;-997.793030;-4.037;0.0061035
723.092041;-997.808044;-4.042;0.0190430
723.057007;-997.827026;-4.042;0.0175781
723.025024;-997.844055;-4.043;0.0288086
722.993042;-997.861023;-4.045;0.0166016
722.961060;-997.878052;-4.047;0.0192871
722.927063;-997.898071;-4.045;0.0073242
722.899048;-997.910034;-4.050;0.0166016
722.865051;-997.931030;-4.048;0.0119629
722.838013;-997.942078;-4.054;0.0144043
722.807007;-997.960022;-4.053;0.0161133
722.776062;-997.977051;-4.054;0.0109863
722.748047;-997.991028;-4.057;0.0100098
722.716064;-998.009033;-4.056;0.0126953
722.690063;-998.020020;-4.062;0.0239258
722.658020;-998.041077;-4.058;0.0192871
722.628052;-998.057068;-4.058;0.0173340
722.599060;-998.073059;-4.059;0.0131836
722.572021;-998.088074;-4.060;0.0153809
722.542053;-998.105042;-4.058;0.0280762
722.515015;-998.118042;-4.062;0.0183105
722.487061;-998.134033;-4.062;0.0187988
722.460022;-998.148071;-4.063;0.0212402
722.434021;-998.161072;-4.066;0.0214844
722.406006;-998.178040;-4.065;0.0170898
722.379028;-998.193054;-4.065;0.0161133
723.745056;-997.529053;-4.013;0.0148926
723.703064;-997.553040;-4.013;0.0217285
723.663025;-997.573059;-4.016;0.0117188
723.621033;-997.597046;-4.015;0.0119629
723.582031;-997.618042;-4.016;0.0122070
723.546021;-997.636047;-4.021;0.0192871
723.506042;-997.657043;-4.022;0.0104980
723.469055;-997.676025;-4.025;0.0173340
723.428040;-997.701050;-4.022;0.0129395
723.395020;-997.716064;-4.027;0.0141602
723.357056;-997.737061;-4.028;0.0104980
723.320007;-997.758057;-4.028;0.0158691
723.286011;-997.774048;-4.032;0.0107422
723.248047;-997.796021;-4.031;0.0217285
723.216064;-997.812073;-4.035;0.0214844
723.177063;-997.835022;-4.032;0.0158691
723.144043;-997.853027;-4.034;0.0153809
723.114014;-997.866028;-4.040;0.0161133
723.078064;-997.887024;-4.038;0.0112305
723.046021;-997.902039;-4.041;0.0144043
723.013062;-997.921021;-4.041;0.0187988
722.979004;-997.941040;-4.041;0.0087891
722.951050;-997.953064;-4.047;0.0104980
722.919006;-997.970032;-4.048;0.0185547
722.884033;-997.991028;-4.046;0.0109863
722.855042;-998.005066;-4.050;0.0122070
722.825012;-998.020020;-4.052;0.0156250
722.795044;-998.036072;-4.053;0.0153809
722.765015;-998.052063;-4.055;0.0141602
722.736023;-998.067078;-4.057;0.0151367
722.703064;-998.087036;-4.054;0.0102539
722.677063;-998.098022;-4.060;0.0234375
722.647034;-998.114075;-4.061;0.0146484
722.616028;-998.132019;-4.059;0.0217285
722.590027;-998.145020;-4.063;0.0168457
722.561035;-998.160034;-4.064;0.0197754
722.532043;-998.177063;-4.064;0.0126953
722.502014;-998.195068;-4.061;0.0266113
722.476013;-998.207031;-4.065;0.0161133
723.821045;-997.558044;-4.009;0.0161133
723.775024;-997.585022;-4.007;0.0083008
723.734009;-997.607056;-4.009;0.0134277
723.694031;-997.628052;-4.012;0.0097656
723.655029;-997.648071;-4.015;0.0173340
723.614014;-997.670044;-4.016;0.0136719
723.574036;-997.691040;-4.017;0.0170898
723.535034;-997.713074;-4.018;0.0131836
723.496033;-997.733032;-4.020;0.0192871
723.457031;-997.755066;-4.020;0.0102539
723.421021;-997.774048;-4.023;0.0178223
723.381042;-997.797058;-4.022;0.0122070
723.345032;-997.816040;-4.024;0.0178223
723.307007;-997.837036;-4.024;0.0168457
723.274048;-997.852051;-4.028;0.0092773
723.240051;-997.869019;-4.032;0.0163574
723.202026;-997.891052;-4.030;0.0134277
723.168030;-997.909058;-4.032;0.0129395
723.135010;-997.925049;-4.036;0.0334473
723.101013;-997.944031;-4.036;0.0129395
723.066040;-997.964050;-4.036;0.0131836
723.033020;-997.981018;-4.039;0.0117188
723.003052;-997.995056;-4.043;0.0144043
722.968018;-998.016052;-4.041;0.0139160
722.937012;-998.031067;-4.044;0.0144043
722.906006;-998.048035;-4.046;0.0085449
722.873047;-998.066040;-4.046;0.0183105
722.844055;-998.080017;-4.050;0.0139160
722.812012;-998.098022;-4.050;0.0139160
722.782043;-998.113037;-4.053;0.0178223
722.752014;-998.129028;-4.054;0.0104980
722.722046;-998.145020;-4.055;0.0139160
722.692017;-998.160034;-4.057;0.0134277
722.663025;-998.176025;-4.058;0.0170898
722.635010;-998.190063;-4.061;0.0244141
722.604004;-998.208069;-4.059;0.0207520
722.575012;-998.224060;-4.061;0.0122070
722.547058;-998.239075;-4.062;0.0200195
723.905029;-997.581055;-4.008;0.0117188
723.856018;-997.610046;-4.006;0.0158691
723.814026;-997.632019;-4.008;0.0126953
723.770020;-997.656067;-4.008;0.0129395
723.727051;-997.679077;-4.010;0.0092773
723.686035;-997.701050;-4.011;0.0104980
723.647034;-997.721069;-4.014;0.0185547
723.606018;-997.743042;-4.016;0.0136719
723.567017;-997.765076;-4.017;0.0148926
723.528015;-997.785034;-4.019;0.0122070
723.488037;-997.807068;-4.020;0.0119629
723.451050;-997.826050;-4.022;0.0102539
723.414062;-997.845032;-4.025;0.0173340
723.372009;-997.870056;-4.022;0.0168457
723.336060;-997.889038;-4.024;0.0158691
723.299011;-997.909058;-4.026;0.0161133
723.263062;-997.928040;-4.027;0.0166016
723.227051;-997.948059;-4.028;0.0170898
723.193054;-997.965027;-4.031;0.0126953
723.156006;-997.986023;-4.030;0.0209961
723.124023;-998.002075;-4.034;0.0156250
723.090027;-998.020020;-4.035;0.0148926
723.058044;-998.035034;-4.040;0.0131836
723.024048;-998.054077;-4.040;0.0139160
722.989014;-998.075073;-4.038;0.0109863
722.957031;-998.090027;-4.042;0.0122070
722.929016;-998.103027;-4.047;0.0102539
722.892029;-998.125061;-4.043;0.0131836
722.863037;-998.139038;-4.048;0.0124512
722.831055;-998.157043;-4.048;0.0117188
722.804016;-998.168030;-4.054;0.0129395
722.772034;-998.186035;-4.055;0.0173340
722.740051;-998.205017;-4.053;0.0129395
722.708008;-998.222046;-4.053;0.0151367
722.680054;-998.236023;-4.057;0.0163574
722.651062;-998.252075;-4.058;0.0156250
722.619019;-998.270020;-4.057;0.0141602
723.981018;-997.613037;-3.998;0.0126953
723.937012;-997.637024;-4.000;0.0122070
723.896057;-997.657043;-4.005;0.0141602
723.851013;-997.681030;-4.006;0.0100098
723.807007;-997.705017;-4.007;0.0175781
723.760010;-997.732056;-4.005;0.0156250
723.721008;-997.751038;-4.009;0.0117188
723.677063;-997.777039;-4.008;0.0080566
723.640015;-997.794067;-4.014;0.0148926
723.597046;-997.819031;-4.013;0.0092773
723.555054;-997.842041;-4.013;0.0124512
723.517029;-997.861023;-4.016;0.0092773
723.478027;-997.882019;-4.018;0.0227051
723.441040;-997.902039;-4.020;0.0144043
723.403015;-997.921021;-4.023;0.0141602
723.363037;-997.944031;-4.022;0.0158691
723.329041;-997.961060;-4.026;0.0151367
723.289062;-997.985046;-4.024;0.0134277
723.254028;-998.001038;-4.028;0.0158691
723.219055;-998.021057;-4.029;0.0122070
723.180054;-998.044067;-4.027;0.0183105
723.147034;-998.059021;-4.031;0.0153809
723.112061;-998.079041;-4.031;0.0151367
723.080017;-998.093018;-4.036;0.0183105
723.044006;-998.115051;-4.034;0.0148926
723.012024;-998.131042;-4.037;0.0097656
722.980042;-998.146057;-4.041;0.0129395
722.945007;-998.168030;-4.039;0.0212402
722.915039;-998.182068;-4.043;0.0134277
722.881042;-998.201050;-4.043;0.0144043
722.851013;-998.215027;-4.047;0.0205078
722.818054;-998.235046;-4.046;0.0178223
722.786011;-998.252075;-4.047;0.0166016
722.759033;-998.263062;-4.053;0.0168457
722.727051;-998.282043;-4.052;0.0141602
722.697021;-998.297058;-4.054;0.0207520
724.071045;-997.633057;-3.996;0.0148926
724.025024;-997.657043;-3.998;0.0241699
723.977051;-997.683044;-3.999;0.0107422
723.934021;-997.706055;-4.001;0.0112305
723.889038;-997.730042;-4.003;0.0104980
723.843018;-997.755066;-4.004;0.0151367
723.802063;-997.776062;-4.007;0.0158691
723.754028;-997.805054;-4.004;0.0185547
723.713013;-997.826050;-4.008;0.0139160
723.671021;-997.848022;-4.009;0.0136719
723.628052;-997.872070;-4.009;0.0095215
723.589050;-997.892029;-4.012;0.0166016
723.547058;-997.916077;-4.012;0.0085449
723.507019;-997.937073;-4.014;0.0122070
723.469055;-997.957031;-4.016;0.0107422
723.431030;-997.977051;-4.018;0.0114746
723.395020;-997.995056;-4.022;0.0092773
723.353027;-998.019043;-4.020;0.0229492
723.320007;-998.034058;-4.025;0.0136719
723.277039;-998.062073;-4.021;0.0065918
723.246033;-998.075073;-4.028;0.0168457
723.205017;-998.099060;-4.024;0.0129395
723.170044;-998.118042;-4.026;0.0097656
723.138062;-998.133057;-4.031;0.0156250
723.102051;-998.153076;-4.031;0.0131836
723.070007;-998.168030;-4.035;0.0190430
723.034058;-998.188049;-4.035;0.0175781
