721.662048;-999.510071;-4.076;0.0217285
721.645020;-999.479065;-4.075;0.0256348
721.627014;-999.443054;-4.078;0.0251465
721.609009;-999.410034;-4.078;0.0178223
721.591064;-999.374023;-4.080;0.0197754
721.573059;-999.337036;-4.081;0.0161133
721.555054;-999.301025;-4.083;0.0224609
721.536011;-999.263062;-4.086;0.0158691
721.518005;-999.227051;-4.086;0.0207520
721.498047;-999.189026;-4.088;0.0244141
721.480042;-999.155029;-4.086;0.0236816
721.460022;-999.114075;-4.089;0.0244141
721.440063;-999.075073;-4.091;0.0205078
721.420044;-999.036072;-4.093;0.0234375
722.009033;-1000.333069;-4.046;0.0268555
721.996033;-1000.305054;-4.048;0.0322266
721.982056;-1000.279053;-4.049;0.0295410
721.968018;-1000.252075;-4.049;0.0263672
721.955017;-1000.220032;-4.054;0.0292969
721.940063;-1000.197021;-4.051;0.0307617
721.925049;-1000.172058;-4.048;0.0205078
721.912048;-1000.135071;-4.057;0.0258789
721.897034;-1000.108032;-4.057;0.0266113
721.882019;-1000.079041;-4.058;0.0244141
721.867004;-1000.053040;-4.056;0.0219727
721.853027;-1000.017029;-4.063;0.0244141
721.837036;-999.991028;-4.060;0.0207520
721.822021;-999.960022;-4.063;0.0192871
721.807007;-999.928040;-4.065;0.0229492
721.791016;-999.899048;-4.065;0.0278320
721.775024;-999.870056;-4.064;0.0197754
721.759033;-999.838074;-4.066;0.0234375
721.743042;-999.805054;-4.068;0.0312500
721.727051;-999.776062;-4.067;0.0246582
721.711060;-999.740051;-4.071;0.0268555
721.694031;-999.712036;-4.069;0.0183105
721.678040;-999.673035;-4.075;0.0334473
721.661011;-999.643066;-4.073;0.0227051
721.644043;-999.614075;-4.072;0.0234375
721.626038;-999.578064;-4.074;0.0280762
721.609009;-999.542053;-4.077;0.0195312
721.591064;-999.511047;-4.076;0.0197754
721.573059;-999.474060;-4.078;0.0139160
721.555054;-999.435059;-4.082;0.0234375
721.537048;-999.398071;-4.083;0.0449219
721.519043;-999.365051;-4.083;0.0268555
721.500061;-999.328064;-4.084;0.0310059
721.481018;-999.289062;-4.086;0.0209961
721.462036;-999.253052;-4.087;0.0197754
721.443054;-999.216064;-4.087;0.0192871
721.423035;-999.175049;-4.091;0.0229492
721.403015;-999.136047;-4.092;0.0183105
721.383057;-999.094055;-4.095;0.0246582
721.363037;-999.056030;-4.096;0.0224609
721.342041;-999.015076;-4.097;0.0236816
721.935059;-1000.316040;-4.052;0.0239258
721.921021;-1000.288025;-4.054;0.0236816
721.906006;-1000.264038;-4.052;0.0480957
721.891052;-1000.236023;-4.052;0.0168457
721.877014;-1000.206055;-4.055;0.0358887
721.863037;-1000.175049;-4.058;0.0351562
721.848022;-1000.147034;-4.058;0.0285645
721.833008;-1000.117065;-4.059;0.0205078
721.818054;-1000.085022;-4.062;0.0319824
721.803040;-1000.060059;-4.059;0.0224609
721.788025;-1000.026062;-4.064;0.0310059
721.772034;-999.999023;-4.062;0.0122070
721.756042;-999.968018;-4.063;0.0227051
721.741028;-999.937073;-4.064;0.0336914
721.724060;-999.905029;-4.066;0.0170898
721.708008;-999.875061;-4.065;0.0244141
721.692017;-999.845032;-4.065;0.0136719
721.676025;-999.810059;-4.068;0.0231934
721.659058;-999.777039;-4.069;0.0253906
721.642029;-999.742065;-4.072;0.0283203
721.625061;-999.711060;-4.072;0.0195312
721.608032;-999.681030;-4.070;0.0263672
721.591064;-999.639038;-4.077;0.0290527
721.573059;-999.610046;-4.074;0.0273438
721.555054;-999.576050;-4.075;0.0275879
721.538025;-999.539062;-4.077;0.0202637
721.519043;-999.503052;-4.079;0.0261230
721.501038;-999.464050;-4.082;0.0224609
721.482056;-999.428040;-4.083;0.0200195
721.464050;-999.395020;-4.081;0.0148926
721.444031;-999.353027;-4.085;0.0251465
721.425049;-999.318054;-4.086;0.0156250
721.406006;-999.276062;-4.089;0.0212402
721.386047;-999.238037;-4.089;0.0168457
721.366028;-999.196045;-4.093;0.0266113
721.346008;-999.160034;-4.092;0.0192871
721.325012;-999.120056;-4.093;0.0187988
721.304016;-999.076050;-4.097;0.0156250
721.284058;-999.039062;-4.096;0.0146484
721.262024;-998.994019;-4.098;0.0231934
721.858032;-1000.302063;-4.054;0.0256348
721.843018;-1000.272034;-4.056;0.0288086
721.828064;-1000.244019;-4.056;0.0185547
721.813049;-1000.216064;-4.056;0.0231934
721.798035;-1000.184021;-4.059;0.0239258
721.783020;-1000.156067;-4.059;0.0285645
721.768005;-1000.123047;-4.062;0.0349121
721.752014;-1000.096069;-4.061;0.0205078
721.737061;-1000.064026;-4.063;0.0217285
721.721008;-1000.033020;-4.064;0.0256348
721.705017;-1000.003052;-4.064;0.0187988
721.689026;-999.970032;-4.066;0.0268555
721.673035;-999.940063;-4.066;0.0246582
721.657043;-999.901062;-4.072;0.0258789
721.640015;-999.870056;-4.072;0.0397949
721.624023;-999.841064;-4.070;0.0224609
721.606018;-999.810059;-4.070;0.0175781
721.589050;-999.772034;-4.074;0.0297852
721.572021;-999.743042;-4.072;0.0192871
721.555054;-999.708069;-4.073;0.0439453
721.537048;-999.673035;-4.075;0.0288086
721.519043;-999.634033;-4.079;0.0266113
721.501038;-999.598022;-4.080;0.0273438
721.483032;-999.563049;-4.081;0.0195312
721.464050;-999.525024;-4.084;0.0212402
721.446045;-999.493042;-4.081;0.0175781
721.427063;-999.454041;-4.084;0.0246582
721.408020;-999.414062;-4.087;0.0222168
721.388062;-999.377075;-4.087;0.0256348
721.369019;-999.340027;-4.088;0.0251465
721.349060;-999.299072;-4.090;0.0280762
721.329041;-999.260071;-4.091;0.0129395
721.308044;-999.216064;-4.095;0.0322266
721.288025;-999.180054;-4.094;0.0161133
721.267029;-999.139038;-4.095;0.0202637
721.246033;-999.096069;-4.097;0.0195312
721.224060;-999.051025;-4.101;0.0317383
721.202026;-999.010071;-4.101;0.0187988
721.180054;-998.962036;-4.106;0.0134277
721.764038;-1000.248047;-4.062;0.0361328
721.749023;-1000.219055;-4.062;0.0258789
721.734009;-1000.188049;-4.064;0.0302734
721.718018;-1000.162048;-4.061;0.0212402
721.702026;-1000.128052;-4.065;0.0263672
721.686035;-1000.099060;-4.064;0.0266113
721.670044;-1000.066040;-4.066;0.0292969
721.654053;-1000.037048;-4.065;0.0253906
721.638062;-1000.001038;-4.070;0.0292969
721.621033;-999.977051;-4.064;0.0163574
721.605042;-999.940063;-4.068;0.0214844
721.588013;-999.910034;-4.067;0.0114746
721.571045;-999.876038;-4.069;0.0229492
721.554016;-999.840027;-4.072;0.0231934
721.536011;-999.805054;-4.074;0.0300293
721.519043;-999.771057;-4.074;0.0300293
721.501038;-999.738037;-4.074;0.0234375
721.483032;-999.701050;-4.077;0.0205078
721.465027;-999.666077;-4.077;0.0219727
721.446045;-999.628052;-4.080;0.0327148
721.428040;-999.591064;-4.082;0.0227051
721.409058;-999.554077;-4.083;0.0231934
721.390015;-999.514038;-4.086;0.0258789
721.371033;-999.479065;-4.085;0.0283203
721.351013;-999.440063;-4.087;0.0280762
721.331055;-999.394043;-4.093;0.0217285
721.311035;-999.363037;-4.089;0.0205078
721.291016;-999.318054;-4.094;0.0227051
721.271057;-999.279053;-4.094;0.0209961
721.250061;-999.237061;-4.096;0.0234375
721.229004;-999.199036;-4.096;0.0256348
721.208008;-999.158020;-4.096;0.0207520
721.186035;-999.115051;-4.099;0.0219727
721.164062;-999.072021;-4.100;0.0190430
721.142029;-999.028076;-4.101;0.0144043
721.120056;-998.982056;-4.104;0.0200195
721.097046;-998.940063;-4.104;0.0190430
721.683044;-1000.225037;-4.064;0.0319824
721.667053;-1000.195068;-4.064;0.0317383
721.651062;-1000.164062;-4.065;0.0319824
721.635010;-1000.136047;-4.063;0.0202637
721.619019;-1000.102051;-4.066;0.0229492
721.602051;-1000.069031;-4.068;0.0275879
721.586060;-1000.036072;-4.069;0.0239258
721.569031;-1000.005066;-4.069;0.0180664
721.552063;-999.972046;-4.069;0.0332031
721.535034;-999.932068;-4.075;0.0332031
721.518005;-999.900024;-4.075;0.0239258
721.500061;-999.869019;-4.074;0.0283203
721.483032;-999.836060;-4.073;0.0239258
721.465027;-999.799072;-4.076;0.0241699
721.447021;-999.762024;-4.078;0.0224609
721.429016;-999.729065;-4.077;0.0158691
721.410034;-999.689026;-4.082;0.0217285
721.391052;-999.656067;-4.080;0.0192871
721.372009;-999.616028;-4.083;0.0268555
721.353027;-999.580017;-4.083;0.0244141
721.334045;-999.539062;-4.086;0.0185547
721.314026;-999.500061;-4.089;0.0187988
721.294006;-999.463074;-4.088;0.0153809
721.274048;-999.424072;-4.089;0.0183105
721.254028;-999.382019;-4.091;0.0109863
721.233032;-999.341064;-4.093;0.0190430
721.212036;-999.300049;-4.094;0.0200195
721.191040;-999.258057;-4.096;0.0224609
721.169006;-999.215027;-4.098;0.0207520
721.147034;-999.171021;-4.100;0.0224609
721.125061;-999.129028;-4.101;0.0180664
721.103027;-999.082031;-4.105;0.0236816
721.081055;-999.041077;-4.103;0.0170898
721.057007;-998.991028;-4.108;0.0209961
721.034058;-998.945068;-4.110;0.0183105
721.616028;-1000.229065;-4.065;0.0346680
721.600037;-1000.195068;-4.068;0.0266113
721.583008;-1000.164062;-4.068;0.0217285
721.567017;-1000.129028;-4.071;0.0227051
721.550049;-1000.099060;-4.070;0.0231934
721.533020;-1000.068054;-4.070;0.0173340
721.516052;-1000.031067;-4.074;0.0322266
721.499023;-1000.000061;-4.072;0.0227051
721.482056;-999.967041;-4.073;0.0236816
721.464050;-999.934021;-4.073;0.0327148
721.446045;-999.897034;-4.075;0.0241699
721.428040;-999.857056;-4.079;0.0187988
721.410034;-999.825073;-4.078;0.0241699
721.392029;-999.790039;-4.078;0.0200195
721.373047;-999.748047;-4.083;0.0368652
721.354004;-999.717041;-4.081;0.0202637
721.335022;-999.682068;-4.080;0.0202637
721.316040;-999.640076;-4.084;0.0229492
721.296021;-999.602051;-4.085;0.0139160
721.276062;-999.561035;-4.088;0.0234375
721.256042;-999.524048;-4.088;0.0129395
721.236023;-999.485046;-4.089;0.0241699
721.215027;-999.439026;-4.094;0.0212402
721.195007;-999.401062;-4.093;0.0180664
721.174011;-999.356018;-4.097;0.0246582
721.152039;-999.317078;-4.096;0.0217285
721.131042;-999.275024;-4.097;0.0122070
721.109009;-999.230042;-4.101;0.0178223
721.087036;-999.187073;-4.101;0.0197754
721.064026;-999.144043;-4.102;0.0126953
721.041016;-999.096069;-4.106;0.0166016
721.018005;-999.047058;-4.109;0.0178223
720.995056;-999.009033;-4.105;0.0195312
720.971008;-998.957031;-4.111;0.0358887
720.947021;-998.913025;-4.110;0.0239258
721.531006;-1000.198059;-4.068;0.0236816
721.514038;-1000.164062;-4.070;0.0275879
721.497009;-1000.132019;-4.070;0.0183105
721.480042;-1000.100037;-4.069;0.0202637
721.463013;-1000.063049;-4.073;0.0202637
721.445007;-1000.029053;-4.074;0.0212402
721.427063;-999.996033;-4.074;0.0249023
721.410034;-999.958069;-4.077;0.0217285
721.392029;-999.923035;-4.077;0.0268555
721.373047;-999.887024;-4.079;0.0200195
721.355042;-999.849060;-4.082;0.0231934
721.336060;-999.813049;-4.082;0.0229492
721.317017;-999.776062;-4.083;0.0231934
721.298035;-999.736023;-4.086;0.0275879
721.278015;-999.697021;-4.087;0.0251465
721.258057;-999.662048;-4.086;0.0236816
721.239014;-999.623047;-4.087;0.0205078
721.218018;-999.579041;-4.092;0.0229492
721.198059;-999.544067;-4.090;0.0178223
721.177063;-999.502075;-4.091;0.0200195
721.156006;-999.458069;-4.095;0.0253906
721.135010;-999.416077;-4.096;0.0185547
721.114014;-999.375061;-4.097;0.0163574
721.092041;-999.332031;-4.099;0.0341797
721.070007;-999.289062;-4.100;0.0231934
721.047058;-999.244019;-4.102;0.0205078
721.025024;-999.201050;-4.102;0.0180664
721.001038;-999.155029;-4.105;0.0217285
720.978027;-999.103027;-4.110;0.0378418
720.954041;-999.061035;-4.108;0.0234375
720.930054;-999.015076;-4.110;0.0192871
720.906006;-998.964050;-4.113;0.0190430
720.881042;-998.915039;-4.115;0.0161133
720.856018;-998.868042;-4.115;0.0148926
721.444031;-1000.160034;-4.073;0.0168457
721.426025;-1000.124023;-4.075;0.0317383
721.409058;-1000.090027;-4.076;0.0314941
721.391052;-1000.056030;-4.077;0.0234375
721.373047;-1000.020020;-4.078;0.0187988
721.354004;-999.985046;-4.078;0.0249023
721.336060;-999.947021;-4.081;0.0234375
721.317017;-999.909058;-4.083;0.0288086
721.298035;-999.872070;-4.084;0.0224609
721.280029;-999.839050;-4.082;0.0158691
721.260010;-999.802063;-4.083;0.0161133
721.240051;-999.760071;-4.086;0.0239258
721.221008;-999.722046;-4.087;0.0244141
721.201050;-999.685059;-4.087;0.0161133
721.180054;-999.642029;-4.090;0.0236816
721.160034;-999.602051;-4.092;0.0185547
721.139038;-999.564026;-4.090;0.0183105
721.118042;-999.519043;-4.094;0.0197754
721.096008;-999.474060;-4.098;0.0209961
721.074036;-999.429077;-4.100;0.0202637
721.052063;-999.388062;-4.100;0.0190430
721.030029;-999.344055;-4.102;0.0207520
721.008057;-999.301025;-4.103;0.0151367
720.985046;-999.255066;-4.104;0.0195312
720.961060;-999.210022;-4.106;0.0180664
720.938049;-999.161072;-4.109;0.0314941
720.914062;-999.116028;-4.110;0.0134277
720.890015;-999.070068;-4.111;0.0244141
720.865051;-999.021057;-4.112;0.0141602
720.840027;-998.971069;-4.114;0.0183105
720.815063;-998.924072;-4.114;0.0153809
720.790039;-998.874023;-4.116;0.0156250
721.372009;-1000.154053;-4.076;0.0256348
721.354004;-1000.116028;-4.078;0.0222168
721.336060;-1000.082031;-4.079;0.0241699
721.318054;-1000.051025;-4.076;0.0202637
721.299011;-1000.008057;-4.082;0.0200195
721.280029;-999.979065;-4.078;0.0244141
721.261047;-999.935059;-4.084;0.0290527
721.242004;-999.900024;-4.083;0.0214844
721.223022;-999.860046;-4.085;0.0336914
721.203064;-999.823059;-4.085;0.0190430
721.183044;-999.783020;-4.087;0.0227051
721.163025;-999.746033;-4.087;0.0222168
721.142029;-999.701050;-4.091;0.0253906
721.121033;-999.663025;-4.091;0.0266113
721.101013;-999.623047;-4.092;0.0122070
721.079041;-999.580017;-4.093;0.0251465
721.057007;-999.532043;-4.098;0.0295410
721.035034;-999.488037;-4.101;0.0244141
721.013062;-999.449036;-4.099;0.0166016
720.991028;-999.407043;-4.099;0.0170898
720.968018;-999.360046;-4.102;0.0161133
720.945007;-999.314026;-4.104;0.0263672
720.922058;-999.268066;-4.105;0.0153809
720.898010;-999.223022;-4.106;0.0190430
720.874023;-999.174072;-4.108;0.0207520
720.849060;-999.124023;-4.111;0.0207520
720.825012;-999.075073;-4.113;0.0197754
720.800049;-999.029053;-4.113;0.0185547
720.774048;-998.981018;-4.113;0.0107422
720.748047;-998.926025;-4.117;0.0229492
720.721008;-998.871033;-4.121;0.0175781
720.695007;-998.823059;-4.120;0.0209961
721.281006;-1000.110046;-4.079;0.0166016
721.262024;-1000.074036;-4.080;0.0207520
721.243042;-1000.032043;-4.084;0.0219727
721.224060;-1000.000061;-4.081;0.0153809
721.204041;-999.959045;-4.085;0.0263672
721.185059;-999.918030;-4.088;0.0288086
721.165039;-999.884033;-4.086;0.0175781
721.145020;-999.843018;-4.088;0.0178223
721.124023;-999.803040;-4.089;0.0168457
721.104004;-999.761047;-4.092;0.0249023
721.083008;-999.722046;-4.092;0.0229492
721.062012;-999.680054;-4.093;0.0212402
721.040039;-999.638062;-4.095;0.0219727
721.019043;-999.595032;-4.096;0.0217285
720.997009;-999.553040;-4.096;0.0219727
720.974060;-999.508057;-4.098;0.0227051
720.952026;-999.464050;-4.100;0.0200195
720.929016;-999.418030;-4.102;0.0161133
720.906006;-999.373047;-4.103;0.0175781
720.881042;-999.320068;-4.109;0.0214844
720.858032;-999.279053;-4.107;0.0175781
720.834045;-999.228027;-4.110;0.0134277
720.809021;-999.181030;-4.111;0.0153809
720.784058;-999.131042;-4.113;0.0244141
720.758057;-999.079041;-4.116;0.0205078
720.733032;-999.029053;-4.117;0.0241699
720.707031;-998.980042;-4.117;0.0217285
720.680054;-998.929077;-4.119;0.0244141
720.653015;-998.877075;-4.119;0.0236816
720.626038;-998.823059;-4.121;0.0197754
721.206055;-1000.098022;-4.081;0.0280762
721.186035;-1000.059021;-4.083;0.0263672
721.167053;-1000.020020;-4.085;0.0297852
721.147034;-999.983032;-4.085;0.0197754
721.127014;-999.938049;-4.090;0.0256348
721.107056;-999.904053;-4.087;0.0180664
721.086060;-999.863037;-4.089;0.0168457
721.065063;-999.823059;-4.090;0.0231934
721.045044;-999.782043;-4.091;0.0219727
721.023010;-999.740051;-4.093;0.0180664
721.001038;-999.697021;-4.094;0.0173340
720.980042;-999.653076;-4.097;0.0227051
720.957031;-999.608032;-4.099;0.0258789
720.935059;-999.568054;-4.097;0.0207520
720.912048;-999.518066;-4.102;0.0200195
720.889038;-999.475037;-4.102;0.0202637
720.865051;-999.429077;-4.104;0.0270996
720.842041;-999.382019;-4.106;0.0817871
720.817017;-999.333069;-4.108;0.0197754
720.793030;-999.286072;-4.109;0.0239258
720.768005;-999.237061;-4.110;0.0190430
720.743042;-999.182068;-4.115;0.0212402
720.717041;-999.135071;-4.114;0.0192871
720.691040;-999.084045;-4.117;0.0246582
720.665039;-999.033020;-4.118;0.0241699
720.638062;-998.983032;-4.118;0.0168457
720.612061;-998.933044;-4.118;0.0212402
720.584045;-998.876038;-4.121;0.1647949
720.556030;-998.823059;-4.121;0.0859375
720.527039;-998.763062;-4.126;0.1333008
721.109009;-1000.043030;-4.086;0.0156250
721.089050;-1000.002075;-4.088;0.0222168
721.068054;-999.961060;-4.090;0.0168457
721.048035;-999.922058;-4.090;0.0200195
721.027039;-999.878052;-4.093;0.0244141
721.006042;-999.841064;-4.091;0.0373535
720.984009;-999.796021;-4.095;0.0327148
720.963013;-999.755066;-4.095;0.0195312
720.940063;-999.709045;-4.098;0.0173340
720.918030;-999.669067;-4.097;0.0224609
720.896057;-999.626038;-4.097;0.0134277
720.873047;-999.579041;-4.100;0.0156250
720.850037;-999.533020;-4.102;0.0129395
720.826050;-999.487061;-4.103;0.0185547
720.801025;-999.436035;-4.107;0.0173340
720.777039;-999.384033;-4.111;0.0195312
720.753052;-999.341064;-4.109;0.0234375
720.727051;-999.293030;-4.110;0.0183105
720.702026;-999.240051;-4.114;0.0136719
720.676025;-999.188049;-4.115;0.0153809
720.650024;-999.141052;-4.115;0.0209961
720.624023;-999.089050;-4.117;0.0256348
720.597046;-999.035034;-4.119;0.0187988
720.569031;-998.985046;-4.118;0.0524902
720.542053;-998.933044;-4.118;0.1340332
720.514038;-998.877075;-4.120;0.1677246
720.485046;-998.819031;-4.122;0.1325684
720.455017;-998.763062;-4.123;0.2148438
721.031006;-1000.020020;-4.091;0.0266113
721.010010;-999.982056;-4.090;0.0180664
720.988037;-999.937073;-4.094;0.0219727
720.967041;-999.894043;-4.096;0.0236816
720.945007;-999.850037;-4.098;0.0251465
720.923035;-999.810059;-4.097;0.0163574
720.901062;-999.765076;-4.100;0.0224609
720.879028;-999.723022;-4.100;0.0261230
720.856018;-999.680054;-4.100;0.0112305
720.833008;-999.632019;-4.103;0.0170898
720.809021;-999.584045;-4.105;0.0185547
720.785034;-999.539062;-4.105;0.0207520
720.761047;-999.490051;-4.108;0.0161133
720.737061;-999.442078;-4.109;0.0187988
720.712036;-999.397034;-4.109;0.0141602
720.687012;-999.348022;-4.110;0.0200195
720.660034;-999.290039;-4.116;0.0197754
720.635010;-999.243042;-4.115;0.0307617
720.609009;-999.195068;-4.114;0.0329590
720.582031;-999.141052;-4.117;0.0202637
720.554016;-999.087036;-4.118;0.0175781
720.528015;-999.040039;-4.117;0.1828613
720.499023;-998.978027;-4.122;0.1406250
720.470032;-998.923035;-4.123;0.2346191
720.441040;-998.865051;-4.125;0.1811523
720.412048;-998.813049;-4.124;0.1389160
720.382019;-998.755066;-4.125;0.0439453
720.950012;-999.997070;-4.093;0.0207520
720.928040;-999.952026;-4.096;0.0214844
720.907043;-999.910034;-4.097;0.0234375
720.885010;-999.867065;-4.098;0.0185547
720.862061;-999.823059;-4.099;0.0219727
720.839050;-999.775024;-4.103;0.0212402
720.816040;-999.733032;-4.102;0.0139160
720.793030;-999.687073;-4.104;0.0178223
720.769043;-999.637024;-4.108;0.0185547
720.745056;-999.592041;-4.108;0.0241699
720.721008;-999.545044;-4.109;0.0124512
720.696045;-999.497070;-4.110;0.0239258
720.671021;-999.447021;-4.112;0.0146484
720.645020;-999.397034;-4.113;0.0141602
720.620056;-999.345032;-4.115;0.0170898
720.593018;-999.292053;-4.118;0.0209961
720.567017;-999.245056;-4.116;0.0219727
720.540039;-999.191040;-4.118;0.0227051
720.513062;-999.139038;-4.119;0.0729980
720.485046;-999.085022;-4.120;0.1318359
720.456055;-999.029053;-4.123;0.2585449
720.427063;-998.970032;-4.125;0.2353516
720.399048;-998.919067;-4.123;0.1062012
720.369019;-998.862061;-4.125;0.1362305
720.339050;-998.803040;-4.126;0.0178223
720.308044;-998.746033;-4.126;0.0158691
720.868042;-999.971069;-4.096;0.0231934
720.846008;-999.927063;-4.097;0.0256348
720.823059;-999.880066;-4.100;0.0183105
720.800049;-999.838074;-4.100;0.0156250
720.777039;-999.787048;-4.105;0.0310059
720.754028;-999.744019;-4.104;0.0205078
720.730042;-999.699036;-4.105;0.0190430
720.705017;-999.649048;-4.107;0.0090332
720.681030;-999.602051;-4.108;0.0153809
720.656006;-999.553040;-4.110;0.0148926
720.630005;-999.503052;-4.111;0.0231934
720.605042;-999.453064;-4.113;0.0214844
720.579041;-999.401062;-4.115;0.0185547
720.552063;-999.349060;-4.116;0.0187988
720.525024;-999.296021;-4.118;0.0136719
720.498047;-999.246033;-4.117;0.0224609
720.471008;-999.194031;-4.118;0.2561035
720.443054;-999.137024;-4.120;0.1718750
720.414062;-999.083069;-4.121;0.2150879
720.385010;-999.026062;-4.122;0.1813965
720.356018;-998.970032;-4.123;0.1594238
720.324036;-998.903076;-4.129;0.0295410
720.294006;-998.847046;-4.129;0.0163574
720.263062;-998.789062;-4.129;0.0202637
720.232056;-998.724060;-4.132;0.0205078
720.199036;-998.659058;-4.135;0.0209961
720.807007;-999.978027;-4.102;0.0278320
720.784058;-999.935059;-4.103;0.0214844
720.761047;-999.890076;-4.104;0.0153809
720.738037;-999.846069;-4.104;0.0163574
720.713013;-999.796021;-4.107;0.0224609
720.690063;-999.753052;-4.106;0.0151367
720.665039;-999.705017;-4.108;0.0168457
720.641052;-999.657043;-4.109;0.0227051
720.615051;-999.606018;-4.112;0.0249023
720.590027;-999.560059;-4.111;0.0166016
720.564026;-999.508057;-4.113;0.0092773
720.538025;-999.459045;-4.113;0.0146484
720.511047;-999.405029;-4.115;0.0187988
720.485046;-999.358032;-4.113;0.0134277
720.457031;-999.297058;-4.119;0.1013184
720.428040;-999.238037;-4.123;0.2053223
720.400024;-999.185059;-4.123;0.1960449
720.371033;-999.130066;-4.124;0.1796875
720.342041;-999.073059;-4.125;0.2036133
720.312012;-999.015076;-4.126;0.1940918
720.282043;-998.957031;-4.127;0.0231934
720.251038;-998.898071;-4.128;0.0231934
720.219055;-998.835022;-4.130;0.0207520
720.188049;-998.774048;-4.132;0.0173340
720.155029;-998.711060;-4.133;0.0166016
720.121033;-998.640076;-4.138;0.0251465
720.722046;-999.949036;-4.103;0.0209961
720.699036;-999.907043;-4.102;0.0183105
720.675049;-999.857056;-4.106;0.0222168
720.650024;-999.807068;-4.108;0.0195312
720.626038;-999.760071;-4.109;0.0219727
720.600037;-999.709045;-4.111;0.0151367
720.575012;-999.659058;-4.113;0.0214844
720.550049;-999.611023;-4.113;0.0180664
720.523010;-999.560059;-4.114;0.0229492
720.497009;-999.508057;-4.116;0.0185547
720.470032;-999.459045;-4.116;0.0161133
720.443054;-999.405029;-4.117;0.0266113
720.415039;-999.352051;-4.118;0.1027832
720.387024;-999.295044;-4.121;0.1491699
720.358032;-999.240051;-4.121;0.1499023
720.329041;-999.183044;-4.123;0.2194824
720.299011;-999.123047;-4.125;0.1762695
720.270020;-999.068054;-4.126;0.0380859
720.239014;-999.012024;-4.125;0.0124512
720.208008;-998.950073;-4.127;0.0214844
720.176025;-998.882019;-4.132;0.0197754
720.143005;-998.819031;-4.134;0.0212402
720.111023;-998.757019;-4.135;0.0170898
720.076050;-998.685059;-4.140;0.0207520
720.042053;-998.618042;-4.141;0.0168457
720.635010;-999.912048;-4.107;0.0148926
720.610046;-999.862061;-4.110;0.0270996
720.585022;-999.810059;-4.113;0.0207520
720.561035;-999.765076;-4.112;0.0209961
720.535034;-999.716064;-4.113;0.0236816
720.509033;-999.668030;-4.112;0.0134277
720.483032;-999.615051;-4.115;0.0156250
720.456055;-999.566040;-4.114;0.0124512
720.429016;-999.509033;-4.117;0.0190430
720.402039;-999.457031;-4.118;0.1455078
720.374023;-999.405029;-4.118;0.1901855
720.345032;-999.345032;-4.122;0.1994629
720.316040;-999.290039;-4.123;0.2292480
720.287048;-999.236023;-4.122;0.1372070
720.257019;-999.176025;-4.125;0.2495117
720.227051;-999.117065;-4.127;0.0183105
720.196045;-999.056030;-4.128;0.0212402
720.164062;-998.997070;-4.129;0.0192871
720.132019;-998.932068;-4.132;0.0197754
720.100037;-998.869019;-4.133;0.0295410
720.065063;-998.797058;-4.138;0.0207520
720.031006;-998.733032;-4.139;0.0214844
720.546021;-999.875061;-4.108;0.0207520
720.520020;-999.822021;-4.111;0.0231934
720.495056;-999.772034;-4.113;0.0200195
720.469055;-999.724060;-4.112;0.0151367
720.442017;-999.670044;-4.114;0.0224609
720.415039;-999.618042;-4.116;0.0168457
720.388062;-999.562073;-4.119;0.0356445
720.360046;-999.510071;-4.118;0.1533203
720.332031;-999.457031;-4.119;0.1406250
720.303040;-999.398071;-4.122;0.2060547
720.274048;-999.344055;-4.122;0.1618652
720.245056;-999.286072;-4.124;0.1757812
720.215027;-999.229065;-4.124;0.0222168
720.184021;-999.171021;-4.124;0.0156250
720.153015;-999.108032;-4.128;0.0175781
720.121033;-999.045044;-4.129;0.0214844
720.088013;-998.981018;-4.131;0.0229492
720.055054;-998.914062;-4.135;0.0219727
720.021057;-998.844055;-4.139;0.0195312
720.481018;-999.880066;-4.110;0.0180664
720.454041;-999.826050;-4.113;0.0207520
720.428040;-999.776062;-4.114;0.0158691
720.402039;-999.727051;-4.113;0.0183105
720.374023;-999.671021;-4.116;0.0283203
720.346008;-999.616028;-4.119;0.2294922
720.318054;-999.562073;-4.119;0.1589355
720.290039;-999.506042;-4.120;0.1489258
720.262024;-999.455017;-4.119;0.2434082
720.232056;-999.395020;-4.122;0.1862793
720.201050;-999.335022;-4.124;0.1958008
720.172058;-999.277039;-4.125;0.0270996
720.140015;-999.217041;-4.127;0.0205078
720.109009;-999.154053;-4.129;0.0170898
720.076050;-999.091064;-4.130;0.0214844
720.044006;-999.025024;-4.134;0.0207520
720.387024;-999.830017;-4.114;0.0197754
720.361023;-999.782043;-4.113;0.0114746
720.333008;-999.723022;-4.117;0.0649414
720.306030;-999.676025;-4.114;0.1188965
720.277039;-999.616028;-4.119;0.1442871
720.248047;-999.556030;-4.122;0.1401367
720.218018;-999.499023;-4.123;0.2089844
720.190063;-999.449036;-4.121;0.1684570
720.159058;-999.384033;-4.126;0.0170898
720.128052;-999.326050;-4.126;0.0148926
720.097046;-999.263062;-4.129;0.0187988
720.064026;-999.198059;-4.132;0.0251465
720.032043;-999.137024;-4.132;0.0234375
720.319031;-999.833069;-4.115;0.0187988
720.292053;-999.781067;-4.115;0.1171875
720.263062;-999.721069;-4.119;0.2644043
720.235046;-999.670044;-4.119;0.1569824
720.206055;-999.612061;-4.121;0.1960449
720.177063;-999.555054;-4.122;0.1225586
720.146057;-999.495056;-4.124;0.0341797
720.116028;-999.437073;-4.125;0.0163574
720.085022;-999.374023;-4.128;0.0209961
720.053040;-999.313049;-4.129;0.0161133
720.021057;-999.252075;-4.130;0.0156250
720.221008;-999.772034;-4.121;0.2031250
720.193054;-999.720032;-4.120;0.1376953
720.163025;-999.661072;-4.122;0.1762695
720.133057;-999.603027;-4.124;0.1477051
720.103027;-999.543030;-4.126;0.0185547
720.072021;-999.483032;-4.128;0.0183105
720.040039;-999.419067;-4.131;0.0224609
720.149048;-999.768066;-4.123;0.1621094
720.120056;-999.708069;-4.125;0.1608887
720.090027;-999.649048;-4.127;0.0244141
720.059021;-999.591064;-4.127;0.0163574
720.028015;-999.529053;-4.130;0.0183105
720.045044;-999.691040;-4.132;0.0268555
720.055054;-998.628052;-4.129;0.0151367
720.037048;-998.633057;-4.138;0.0163574
720.021057;-998.642029;-4.138;0.0227051
720.146057;-998.644043;-4.131;0.0163574
720.130005;-998.653076;-4.131;0.0148926
720.116028;-998.664062;-4.128;0.0144043
720.099060;-998.671021;-4.130;0.0192871
720.083008;-998.681030;-4.128;0.0170898
720.067017;-998.689026;-4.131;0.0207520
720.050049;-998.695068;-4.136;0.0241699
720.035034;-998.707031;-4.131;0.0222168
720.223022;-998.670044;-4.130;0.0241699
720.206055;-998.676025;-4.135;0.0234375
720.193054;-998.693054;-4.120;0.0158691
720.176025;-998.698059;-4.127;0.0136719
720.159058;-998.706055;-4.129;0.0163574
720.143005;-998.715027;-4.130;0.0170898
720.128052;-998.725037;-4.128;0.0156250
720.111023;-998.733032;-4.130;0.0192871
720.096008;-998.742065;-4.130;0.0178223
720.079041;-998.750061;-4.131;0.0178223
720.063049;-998.759033;-4.132;0.0229492
720.048035;-998.769043;-4.129;0.0222168
720.031006;-998.775024;-4.135;0.0141602
720.301025;-998.699036;-4.124;0.0185547
720.286011;-998.711060;-4.117;0.0156250
720.268005;-998.715027;-4.127;0.0148926
720.253052;-998.727051;-4.121;0.0148926
720.238037;-998.737061;-4.119;0.0122070
720.219055;-998.738037;-4.133;0.0227051
720.206055;-998.754028;-4.120;0.0185547
720.187012;-998.757019;-4.133;0.0270996
720.172058;-998.767029;-4.130;0.0178223
720.155029;-998.774048;-4.133;0.0227051
720.139038;-998.783020;-4.133;0.0141602
720.124023;-998.793030;-4.131;0.0170898
720.108032;-998.802063;-4.131;0.0192871
720.091064;-998.809021;-4.136;0.0170898
720.076050;-998.819031;-4.133;0.0185547
720.059021;-998.827026;-4.135;0.0185547
720.042053;-998.834045;-4.139;0.0205078
720.029053;-998.848022;-4.129;0.0178223
720.378052;-998.724060;-4.123;0.0163574
720.361023;-998.730042;-4.129;0.0231934
720.346008;-998.743042;-4.122;0.0197754
720.329041;-998.749023;-4.128;0.0134277
720.314026;-998.761047;-4.122;0.0178223
720.298035;-998.767029;-4.126;0.0234375
720.281006;-998.776062;-4.127;0.0170898
720.265015;-998.784058;-4.130;0.0156250
720.249023;-998.793030;-4.130;0.0163574
720.234009;-998.804077;-4.126;0.0219727
720.218018;-998.813049;-4.125;0.0234375
720.201050;-998.819031;-4.130;0.0185547
720.185059;-998.828064;-4.131;0.0205078
720.169006;-998.837036;-4.130;0.0178223
720.154053;-998.848022;-4.127;0.0148926
720.138062;-998.857056;-4.126;0.0129395
720.121033;-998.865051;-4.129;0.0148926
720.106018;-998.874023;-4.128;0.0222168
720.089050;-998.881042;-4.133;0.0319824
720.073059;-998.889038;-4.134;0.0185547
720.058044;-998.899048;-4.131;0.0227051
720.042053;-998.909058;-4.130;0.0192871
720.024048;-998.915039;-4.137;0.0283203
720.456055;-998.746033;-4.127;0.1083984
720.440063;-998.754028;-4.129;0.1398926
720.424011;-998.764038;-4.128;0.1105957
720.407043;-998.772034;-4.130;0.0996094
720.391052;-998.783020;-4.128;0.1298828
720.375061;-998.792053;-4.127;0.0935059
720.358032;-998.798035;-4.132;0.0266113
720.344055;-998.812073;-4.123;0.0163574
720.328064;-998.821045;-4.123;0.0183105
720.311035;-998.829041;-4.126;0.0170898
720.295044;-998.837036;-4.127;0.0175781
720.279053;-998.847046;-4.125;0.0249023
720.262024;-998.854065;-4.129;0.0175781
720.247009;-998.863037;-4.129;0.0156250
720.231018;-998.873047;-4.128;0.0234375
720.215027;-998.882019;-4.128;0.0170898
720.199036;-998.891052;-4.128;0.0192871
720.182007;-998.897034;-4.133;0.0190430
720.166016;-998.907043;-4.131;0.0205078
720.150024;-998.915039;-4.132;0.0185547
720.134033;-998.924072;-4.133;0.0148926
720.119019;-998.935059;-4.130;0.0207520
720.103027;-998.945068;-4.127;0.0200195
720.087036;-998.953064;-4.130;0.0163574
720.071045;-998.962036;-4.130;0.0200195
720.054016;-998.968018;-4.135;0.0234375
720.041016;-998.983032;-4.123;0.0200195
720.023010;-998.988037;-4.130;0.0178223
720.536011;-998.771057;-4.127;0.1486816
720.520020;-998.780029;-4.128;0.1010742
720.503052;-998.788025;-4.128;0.1115723
720.487061;-998.798035;-4.128;0.1430664
720.471008;-998.806030;-4.129;0.1516113
720.454041;-998.814026;-4.133;0.1437988
720.438049;-998.824036;-4.130;0.0983887
720.422058;-998.835022;-4.127;0.1782227
720.406006;-998.844055;-4.128;0.0776367
720.389038;-998.854065;-4.126;0.1333008
720.373047;-998.862061;-4.128;0.0808105
720.357056;-998.871033;-4.127;0.1840820
720.341064;-998.881042;-4.127;0.0717773
720.325012;-998.891052;-4.125;0.0224609
720.309021;-998.900024;-4.124;0.0168457
720.293030;-998.910034;-4.124;0.0183105
720.277039;-998.920044;-4.122;0.0134277
720.260010;-998.926025;-4.127;0.0148926
720.245056;-998.938049;-4.122;0.0227051
720.229004;-998.944031;-4.126;0.0170898
720.212036;-998.952026;-4.128;0.0197754
720.197021;-998.964050;-4.123;0.0126953
720.180054;-998.970032;-4.129;0.0170898
720.164062;-998.978027;-4.130;0.0148926
720.148010;-998.987061;-4.131;0.0185547
720.132019;-998.997070;-4.129;0.0156250
720.116028;-999.006042;-4.128;0.0212402
720.099060;-999.012024;-4.133;0.0185547
720.085022;-999.024048;-4.128;0.0141602
720.068054;-999.032043;-4.131;0.0212402
720.053040;-999.042053;-4.128;0.0185547
720.037048;-999.051025;-4.129;0.0178223
720.020020;-999.058044;-4.132;0.0234375
720.635010;-998.791077;-4.117;0.0151367
720.618042;-998.795044;-4.126;0.1022949
720.601013;-998.806030;-4.123;0.1164551
720.585022;-998.815063;-4.123;0.1071777
720.568054;-998.824036;-4.125;0.0976562
720.551025;-998.833069;-4.124;0.1232910
720.535034;-998.844055;-4.123;0.1313477
720.518005;-998.852051;-4.124;0.1279297
720.502014;-998.860046;-4.126;0.0905762
720.485046;-998.870056;-4.125;0.1013184
720.469055;-998.878052;-4.126;0.1271973
720.453064;-998.888062;-4.126;0.1232910
720.437012;-998.898071;-4.123;0.0991211
720.420044;-998.905029;-4.128;0.1499023
720.404053;-998.914062;-4.128;0.0942383
720.387024;-998.924072;-4.127;0.1049805
720.372009;-998.935059;-4.124;0.1572266
720.355042;-998.943054;-4.125;0.1804199
720.338013;-998.950073;-4.130;0.1936035
720.323059;-998.960022;-4.128;0.1708984
720.307007;-998.973022;-4.121;0.0239258
720.291016;-998.981018;-4.123;0.0205078
720.275024;-998.990051;-4.123;0.0183105
720.259033;-998.999023;-4.122;0.0170898
720.243042;-999.009033;-4.120;0.0185547
720.226013;-999.015076;-4.127;0.0183105
720.210022;-999.025024;-4.125;0.0114746
720.195007;-999.035034;-4.123;0.0185547
720.179016;-999.043030;-4.125;0.0185547
720.162048;-999.051025;-4.126;0.0156250
720.146057;-999.060059;-4.126;0.0185547
720.132019;-999.072021;-4.120;0.0148926
720.115051;-999.078064;-4.125;0.0107422
720.098022;-999.086060;-4.128;0.0292969
720.083008;-999.097046;-4.124;0.0148926
720.066040;-999.104065;-4.128;0.0219727
720.050049;-999.112061;-4.130;0.0156250
720.033020;-999.119019;-4.133;0.0205078
720.718018;-998.817078;-4.113;0.0236816
720.701050;-998.824036;-4.116;0.0134277
720.684021;-998.833069;-4.116;0.0197754
720.667053;-998.845032;-4.113;0.0136719
720.651062;-998.851074;-4.118;0.0170898
720.634033;-998.863037;-4.115;0.0136719
720.617004;-998.869019;-4.119;0.0197754
720.600037;-998.877075;-4.121;0.0292969
720.583008;-998.885071;-4.123;0.0998535
720.567017;-998.895020;-4.123;0.0644531
720.550049;-998.903076;-4.125;0.1003418
720.533020;-998.912048;-4.126;0.1052246
720.516052;-998.919067;-4.129;0.1801758
720.500061;-998.931030;-4.124;0.1132812
720.484009;-998.939026;-4.127;0.1770020
720.467041;-998.948059;-4.128;0.0690918
720.451050;-998.960022;-4.123;0.1403809
720.434021;-998.966064;-4.128;0.1013184
720.418030;-998.977051;-4.125;0.0939941
720.402039;-998.983032;-4.131;0.1516113
720.386047;-998.995056;-4.125;0.0886230
720.369019;-999.004028;-4.125;0.0895996
720.353027;-999.013062;-4.126;0.1450195
720.337036;-999.024048;-4.124;0.1567383
720.320007;-999.030029;-4.128;0.1374512
720.305054;-999.040039;-4.126;0.2145996
720.289062;-999.052063;-4.121;0.0388184
720.273010;-999.060059;-4.123;0.0268555
720.256042;-999.067078;-4.127;0.0141602
720.241028;-999.079041;-4.123;0.0163574
720.224060;-999.087036;-4.124;0.0219727
720.208008;-999.094055;-4.127;0.0190430
720.192017;-999.105042;-4.124;0.0197754
720.176025;-999.114075;-4.124;0.0197754
720.161011;-999.125061;-4.120;0.0129395
720.144043;-999.132019;-4.124;0.0185547
720.128052;-999.139038;-4.127;0.0219727
720.112061;-999.149048;-4.126;0.0212402
720.096008;-999.157043;-4.128;0.0234375
720.080017;-999.167053;-4.126;0.0156250
720.064026;-999.174072;-4.129;0.0170898
720.047058;-999.182068;-4.130;0.0200195
720.032043;-999.193054;-4.127;0.0141602
720.786011;-998.850037;-4.109;0.0227051
720.768005;-998.858032;-4.112;0.0173340
720.751038;-998.867065;-4.114;0.0146484
720.734009;-998.874023;-4.118;0.0153809
720.717041;-998.889038;-4.109;0.0129395
720.700012;-998.898071;-4.110;0.0229492
720.683044;-998.904053;-4.116;0.0236816
720.666016;-998.915039;-4.113;0.0209961
720.650024;-998.926025;-4.111;0.0217285
720.633057;-998.933044;-4.115;0.0178223
720.616028;-998.941040;-4.116;0.0205078
720.599060;-998.951050;-4.116;0.0205078
720.582031;-998.960022;-4.117;0.0239258
720.565063;-998.965027;-4.123;0.0607910
720.549011;-998.974060;-4.125;0.0698242
720.532043;-998.983032;-4.124;0.1337891
720.515015;-998.991028;-4.126;0.1086426
720.499023;-999.000061;-4.127;0.1604004
720.482056;-999.010071;-4.127;0.1311035
720.466064;-999.019043;-4.128;0.1491699
720.449036;-999.028076;-4.127;0.2102051
720.433044;-999.040039;-4.123;0.1098633
720.416016;-999.048035;-4.125;0.0883789
720.400024;-999.056030;-4.127;0.0771484
720.384033;-999.067078;-4.124;0.1047363
720.367004;-999.075073;-4.125;0.0866699
720.351013;-999.085022;-4.124;0.1147461
720.335022;-999.092041;-4.128;0.1530762
720.319031;-999.102051;-4.126;0.0847168
720.302063;-999.112061;-4.125;0.0920410
720.287048;-999.122070;-4.123;0.0866699
720.270020;-999.129028;-4.128;0.1623535
720.254028;-999.139038;-4.125;0.0275879
720.239014;-999.151062;-4.120;0.0175781
720.222046;-999.157043;-4.126;0.0175781
720.207031;-999.169067;-4.120;0.0170898
720.190063;-999.177063;-4.121;0.0170898
720.174011;-999.185059;-4.123;0.0178223
720.158020;-999.194031;-4.123;0.0178223
720.141052;-999.201050;-4.128;0.0178223
720.126038;-999.211060;-4.126;0.0163574
720.110046;-999.222046;-4.122;0.0156250
720.093018;-999.227051;-4.130;0.0178223
720.077026;-999.237061;-4.128;0.0200195
720.061035;-999.244019;-4.131;0.0241699
720.046021;-999.255066;-4.127;0.0170898
720.029053;-999.262024;-4.131;0.0185547
720.872009;-998.870056;-4.112;0.0092773
720.855042;-998.880066;-4.112;0.0104980
720.837036;-998.890076;-4.111;0.0190430
720.820007;-998.900024;-4.111;0.0166016
720.802063;-998.907043;-4.115;0.0217285
720.785034;-998.920044;-4.110;0.0131836
720.768005;-998.927063;-4.114;0.0212402
720.750061;-998.940063;-4.108;0.0207520
720.733032;-998.948059;-4.112;0.0187988
720.716064;-998.958069;-4.110;0.0126953
720.699036;-998.967041;-4.112;0.0153809
720.682007;-998.976074;-4.113;0.0175781
720.665039;-998.989075;-4.107;0.0129395
720.648010;-998.993042;-4.116;0.0195312
720.632019;-999.005066;-4.111;0.0148926
720.615051;-999.013062;-4.114;0.0144043
720.598022;-999.021057;-4.116;0.0183105
720.581055;-999.030029;-4.117;0.0136719
720.564026;-999.036072;-4.122;0.0197754
720.547058;-999.049072;-4.117;0.0534668
720.530029;-999.054077;-4.124;0.2402344
720.514038;-999.064026;-4.123;0.0810547
720.497009;-999.074036;-4.121;0.1501465
720.480042;-999.082031;-4.124;0.1611328
720.464050;-999.091064;-4.124;0.0834961
720.448059;-999.102051;-4.121;0.1191406
720.431030;-999.108032;-4.128;0.1611328
720.415039;-999.120056;-4.122;0.1091309
720.398010;-999.128052;-4.125;0.2258301
720.382019;-999.136047;-4.126;0.1250000
720.365051;-999.143066;-4.130;0.1604004
720.349060;-999.155029;-4.126;0.1408691
720.333008;-999.164062;-4.125;0.1391602
720.316040;-999.171021;-4.130;0.0815430
720.301025;-999.184021;-4.123;0.1276855
720.284058;-999.191040;-4.126;0.1535645
720.268005;-999.199036;-4.129;0.1977539
720.251038;-999.208069;-4.129;0.2512207
720.235046;-999.218018;-4.127;0.0500488
720.220032;-999.230042;-4.122;0.0219727
720.204041;-999.238037;-4.124;0.0156250
720.188049;-999.250061;-4.119;0.0178223
720.172058;-999.256042;-4.124;0.0156250
720.156006;-999.266052;-4.121;0.0148926
720.140015;-999.276062;-4.120;0.0148926
720.124023;-999.283020;-4.124;0.0185547
720.108032;-999.293030;-4.122;0.0163574
720.090027;-999.298035;-4.130;0.0156250
720.075012;-999.308044;-4.127;0.0219727
720.060059;-999.319031;-4.124;0.0122070
720.043030;-999.327026;-4.126;0.0192871
720.028015;-999.337036;-4.124;0.0170898
720.961060;-998.893066;-4.107;0.0161133
720.943054;-998.903076;-4.106;0.0168457
720.925049;-998.911072;-4.110;0.0153809
720.907043;-998.924072;-4.105;0.0117188
720.890015;-998.931030;-4.109;0.0144043
720.872009;-998.939026;-4.112;0.0136719
720.855042;-998.948059;-4.113;0.0183105
720.837036;-998.960022;-4.110;0.0131836
720.819031;-998.971069;-4.108;0.0151367
720.802063;-998.978027;-4.113;0.0104980
720.784058;-998.989075;-4.111;0.0146484
720.767029;-999.000061;-4.110;0.0153809
720.750061;-999.006042;-4.115;0.0112305
720.732056;-999.018066;-4.112;0.0153809
720.716064;-999.027039;-4.113;0.0153809
720.698059;-999.037048;-4.111;0.0288086
720.681030;-999.044067;-4.115;0.0173340
720.664062;-999.058044;-4.110;0.0129395
720.647034;-999.068054;-4.108;0.0156250
720.630005;-999.076050;-4.111;0.0175781
720.613037;-999.085022;-4.111;0.0190430
720.596008;-999.095032;-4.110;0.0122070
720.579041;-999.102051;-4.114;0.0183105
720.563049;-999.113037;-4.112;0.0170898
720.546021;-999.120056;-4.116;0.0185547
720.529053;-999.130066;-4.115;0.0163574
720.513062;-999.136047;-4.121;0.0583496
720.496033;-999.146057;-4.120;0.0852051
720.479004;-999.155029;-4.120;0.0468750
720.463013;-999.162048;-4.123;0.0673828
720.446045;-999.172058;-4.122;0.0891113
720.429016;-999.181030;-4.122;0.1181641
720.413025;-999.190063;-4.124;0.1474609
720.396057;-999.196045;-4.129;0.1445312
720.380005;-999.206055;-4.127;0.1545410
720.363037;-999.217041;-4.125;0.1140137
720.347046;-999.224060;-4.129;0.1374512
720.331055;-999.237061;-4.122;0.1013184
720.314026;-999.242065;-4.129;0.0739746
720.298035;-999.252075;-4.128;0.1145020
720.282043;-999.263062;-4.125;0.0937500
720.265015;-999.268066;-4.133;0.1403809
720.250061;-999.280029;-4.126;0.1628418
720.233032;-999.290039;-4.125;0.0358887
720.217041;-999.297058;-4.129;0.1391602
720.201050;-999.307068;-4.127;0.0332031
720.185059;-999.317078;-4.125;0.0168457
720.169006;-999.326050;-4.126;0.0175781
720.153015;-999.336060;-4.124;0.0148926
720.137024;-999.344055;-4.126;0.0148926
720.120056;-999.353027;-4.126;0.0156250
720.105042;-999.363037;-4.123;0.0163574
720.089050;-999.371033;-4.126;0.0178223
720.073059;-999.382019;-4.123;0.0148926
720.056030;-999.388062;-4.128;0.0234375
720.040039;-999.397034;-4.128;0.0185547
720.025024;-999.407043;-4.125;0.0156250
721.035034;-998.919067;-4.109;0.0151367
721.016052;-998.933044;-4.104;0.0183105
720.997009;-998.944031;-4.103;0.0153809
720.979004;-998.952026;-4.106;0.0122070
720.961060;-998.961060;-4.107;0.0114746
720.943054;-998.973022;-4.105;0.0129395
720.926025;-998.980042;-4.110;0.0185547
720.907043;-998.993042;-4.106;0.0122070
720.889038;-999.003052;-4.106;0.0136719
720.872009;-999.010071;-4.110;0.0180664
720.854004;-999.018066;-4.114;0.0136719
720.836060;-999.032043;-4.107;0.0163574
720.819031;-999.037048;-4.114;0.0131836
720.801025;-999.055054;-4.103;0.0124512
720.784058;-999.059021;-4.110;0.0144043
720.766052;-999.072021;-4.107;0.0205078
720.749023;-999.080017;-4.109;0.0166016
720.732056;-999.089050;-4.109;0.0185547
720.714050;-999.100037;-4.108;0.0166016
720.697021;-999.110046;-4.107;0.0195312
720.680054;-999.121033;-4.105;0.0126953
720.663025;-999.129028;-4.108;0.0207520
720.646057;-999.138062;-4.108;0.0148926
720.629028;-999.147034;-4.109;0.0148926
720.612061;-999.153076;-4.116;0.0168457
720.595032;-999.166077;-4.110;0.0231934
720.578064;-999.175049;-4.110;0.0178223
720.561035;-999.185059;-4.110;0.0170898
720.544006;-999.191040;-4.115;0.0224609
720.528015;-999.201050;-4.114;0.0170898
720.511047;-999.212036;-4.112;0.0234375
720.494019;-999.220032;-4.114;0.0295410
720.478027;-999.227051;-4.118;0.0659180
720.461060;-999.233032;-4.123;0.0734863
720.444031;-999.242065;-4.124;0.0927734
720.428040;-999.251038;-4.123;0.1247559
720.411011;-999.262024;-4.122;0.0668945
720.394043;-999.269043;-4.124;0.1120605
720.378052;-999.279053;-4.124;0.1289062
720.362061;-999.289062;-4.123;0.1401367
720.345032;-999.295044;-4.127;0.1032715
720.329041;-999.305054;-4.126;0.0993652
720.312012;-999.315063;-4.125;0.1420898
720.296021;-999.324036;-4.126;0.1186523
720.280029;-999.333069;-4.126;0.1193848
720.264038;-999.344055;-4.122;0.0903320
720.247009;-999.350037;-4.128;0.1511230
720.231018;-999.360046;-4.126;0.0947266
720.215027;-999.370056;-4.125;0.1840820
720.199036;-999.379028;-4.125;0.1110840
720.182007;-999.385071;-4.130;0.1137695
720.167053;-999.401062;-4.118;0.0134277
720.150024;-999.406067;-4.125;0.0112305
720.135010;-999.416077;-4.124;0.0163574
720.118042;-999.425049;-4.124;0.0183105
720.102051;-999.433044;-4.126;0.0175781
720.086060;-999.442078;-4.125;0.0185547
720.070007;-999.450073;-4.127;0.0183105
720.055054;-999.462036;-4.122;0.0178223
720.038025;-999.468018;-4.128;0.0185547
720.022034;-999.478027;-4.125;0.0126953
721.128052;-998.940063;-4.102;0.0117188
721.109009;-998.951050;-4.102;0.0173340
721.090027;-998.961060;-4.103;0.0180664
721.072021;-998.969055;-4.106;0.0168457
721.053040;-998.982056;-4.103;0.0168457
721.035034;-998.989075;-4.108;0.0207520
721.017029;-999.002075;-4.104;0.0144043
720.999023;-999.009033;-4.108;0.0183105
720.979004;-999.024048;-4.102;0.0151367
720.962036;-999.031067;-4.107;0.0158691
720.944031;-999.042053;-4.106;0.0158691
720.926025;-999.050049;-4.108;0.0161133
720.908020;-999.059021;-4.110;0.0197754
720.890015;-999.071045;-4.107;0.0153809
720.872009;-999.081055;-4.108;0.0207520
720.854004;-999.091064;-4.108;0.0180664
720.836060;-999.100037;-4.108;0.0202637
720.818054;-999.114075;-4.103;0.0136719
720.801025;-999.119019;-4.111;0.0170898
720.783020;-999.130066;-4.109;0.0131836
720.766052;-999.142029;-4.106;0.0166016
720.748047;-999.148071;-4.111;0.0151367
720.731018;-999.160034;-4.108;0.0126953
720.714050;-999.167053;-4.112;0.0158691
720.696045;-999.178040;-4.109;0.0173340
720.679016;-999.186035;-4.112;0.0161133
720.662048;-999.198059;-4.109;0.0126953
720.645020;-999.208069;-4.109;0.0168457
720.628052;-999.214050;-4.114;0.0605469
720.611023;-999.224060;-4.114;0.0153809
720.594055;-999.235046;-4.111;0.0156250
720.577026;-999.248047;-4.106;0.0183105
720.560059;-999.253052;-4.113;0.0163574
720.543030;-999.265076;-4.109;0.0163574
720.526062;-999.273071;-4.111;0.0144043
720.509033;-999.280029;-4.114;0.0246582
720.493042;-999.292053;-4.111;0.0197754
720.476013;-999.297058;-4.118;0.0192871
720.459045;-999.308044;-4.116;0.0756836
720.442017;-999.314026;-4.120;0.1071777
720.426025;-999.322021;-4.122;0.0666504
720.409058;-999.332031;-4.122;0.1501465
720.392029;-999.340027;-4.124;0.0876465
720.376038;-999.348022;-4.126;0.2089844
720.360046;-999.359070;-4.123;0.2062988
720.343018;-999.367065;-4.126;0.1232910
720.327026;-999.377075;-4.123;0.1291504
720.310059;-999.385071;-4.126;0.1313477
720.294006;-999.395020;-4.125;0.1391602
720.277039;-999.401062;-4.130;0.1181641
720.262024;-999.417053;-4.118;0.1333008
720.245056;-999.422058;-4.125;0.1054688
720.229004;-999.430054;-4.127;0.1608887
720.213013;-999.441040;-4.125;0.1389160
720.196045;-999.448059;-4.127;0.1528320
720.180054;-999.458069;-4.125;0.1723633
720.163025;-999.466064;-4.129;0.0793457
720.148010;-999.478027;-4.123;0.0332031
720.132019;-999.487061;-4.124;0.0163574
720.116028;-999.496033;-4.122;0.0190430
720.099060;-999.503052;-4.126;0.0175781
720.084045;-999.513062;-4.126;0.0212402
720.068054;-999.523071;-4.123;0.0234375
720.052063;-999.532043;-4.123;0.0134277
720.036011;-999.540039;-4.125;0.0197754
720.020020;-999.551025;-4.122;0.0134277
721.188049;-998.975037;-4.105;0.0139160
721.168030;-998.986023;-4.103;0.0163574
721.149048;-998.996033;-4.104;0.0183105
721.130005;-999.007019;-4.104;0.0146484
721.111023;-999.017029;-4.106;0.0190430
721.092041;-999.028076;-4.104;0.0148926
721.074036;-999.036072;-4.109;0.0141602
721.055054;-999.047058;-4.107;0.0129395
721.036011;-999.058044;-4.107;0.0148926
721.017029;-999.071045;-4.104;0.0156250
720.999023;-999.079041;-4.106;0.0168457
720.981018;-999.086060;-4.111;0.0100098
720.962036;-999.098022;-4.109;0.0158691
720.945007;-999.107056;-4.111;0.0214844
720.927063;-999.113037;-4.117;0.0253906
720.908020;-999.128052;-4.109;0.0185547
720.890015;-999.140076;-4.108;0.0161133
720.871033;-999.152039;-4.105;0.0153809
720.854004;-999.161072;-4.106;0.0192871
720.836060;-999.169067;-4.109;0.0148926
720.819031;-999.175049;-4.115;0.0148926
720.800049;-999.189026;-4.109;0.0156250
720.783020;-999.199036;-4.110;0.0183105
720.765015;-999.207031;-4.111;0.0131836
720.748047;-999.219055;-4.108;0.0163574
720.730042;-999.229065;-4.109;0.0104980
720.713013;-999.238037;-4.110;0.0151367
