725.508057;-999.727051;-3.899;0.0217285
725.498047;-999.707031;-3.900;0.0246582
725.485046;-999.686035;-3.897;0.0187988
725.479065;-999.668030;-3.904;0.0249023
725.466064;-999.647034;-3.901;0.0190430
725.457031;-999.628052;-3.903;0.0197754
725.448059;-999.608032;-3.905;0.0258789
725.437012;-999.588074;-3.905;0.0361328
725.425049;-999.568054;-3.903;0.0212402
725.416016;-999.549072;-3.905;0.0310059
725.404053;-999.529053;-3.903;0.0219727
725.399048;-999.512024;-3.910;0.0366211
725.386047;-999.492065;-3.907;0.0312500
725.377014;-999.473022;-3.909;0.0258789
725.364014;-999.453064;-3.906;0.0236816
725.358032;-999.435059;-3.911;0.0285645
725.347046;-999.416077;-3.910;0.0219727
725.338013;-999.398071;-3.911;0.0195312
725.328064;-999.379028;-3.912;0.0214844
725.320007;-999.361023;-3.913;0.0270996
725.309021;-999.342041;-3.913;0.0246582
725.300049;-999.324036;-3.914;0.0317383
725.291016;-999.305054;-3.915;0.0261230
725.280029;-999.287048;-3.914;0.0192871
725.274048;-999.269043;-3.919;0.0332031
725.262024;-999.251038;-3.916;0.0263672
725.253052;-999.233032;-3.917;0.0329590
725.244019;-999.215027;-3.918;0.0498047
725.233032;-999.197021;-3.917;0.0222168
725.227051;-999.179077;-3.922;0.0324707
725.217041;-999.162048;-3.921;0.0268555
725.208008;-999.144043;-3.921;0.0249023
725.198059;-999.126038;-3.922;0.0244141
725.188049;-999.109070;-3.921;0.0212402
725.180054;-999.091064;-3.923;0.0217285
725.171021;-999.074036;-3.924;0.0266113
725.162048;-999.056030;-3.924;0.0305176
725.154053;-999.039062;-3.927;0.0273438
725.751038;-1000.321045;-3.887;0.0246582
725.738037;-1000.297058;-3.886;0.0253906
725.724060;-1000.274048;-3.885;0.0246582
725.711060;-1000.250061;-3.885;0.0283203
725.696045;-1000.226074;-3.882;0.0297852
725.688049;-1000.205017;-3.888;0.0307617
725.676025;-1000.182068;-3.887;0.0380859
725.663025;-1000.159058;-3.887;0.0339355
725.651062;-1000.136047;-3.887;0.0231934
725.641052;-1000.115051;-3.890;0.0217285
725.632019;-1000.094055;-3.892;0.0234375
725.622009;-1000.073059;-3.895;0.0229492
725.605042;-1000.049072;-3.889;0.0244141
725.597046;-1000.028076;-3.893;0.0354004
725.588013;-1000.008057;-3.896;0.0261230
725.574036;-999.986023;-3.894;0.0246582
725.562012;-999.964050;-3.893;0.0224609
725.550049;-999.942078;-3.893;0.0261230
725.540039;-999.922058;-3.895;0.0375977
725.527039;-999.900024;-3.893;0.0207520
725.520020;-999.881042;-3.898;0.0253906
725.509033;-999.860046;-3.898;0.0253906
725.500061;-999.840027;-3.900;0.0405273
725.487061;-999.819031;-3.898;0.0285645
725.477051;-999.799072;-3.899;0.0205078
725.466064;-999.779053;-3.900;0.0217285
725.455017;-999.759033;-3.900;0.0241699
725.446045;-999.739075;-3.901;0.0249023
725.437012;-999.720032;-3.904;0.0231934
725.428040;-999.700073;-3.906;0.0305176
725.418030;-999.681030;-3.907;0.0270996
725.408020;-999.661072;-3.908;0.0300293
725.394043;-999.641052;-3.903;0.0183105
725.387024;-999.623047;-3.908;0.0322266
725.376038;-999.603027;-3.907;0.0275879
725.369019;-999.584045;-3.911;0.0256348
725.356018;-999.565063;-3.909;0.0197754
725.346008;-999.546021;-3.909;0.0222168
725.337036;-999.527039;-3.910;0.0168457
725.330017;-999.509033;-3.914;0.0280762
725.318054;-999.490051;-3.912;0.0212402
725.310059;-999.471069;-3.915;0.0307617
725.301025;-999.453064;-3.916;0.0283203
725.293030;-999.435059;-3.920;0.0219727
725.282043;-999.416077;-3.918;0.0253906
725.272034;-999.398071;-3.918;0.0234375
725.261047;-999.379028;-3.917;0.0217285
725.254028;-999.361023;-3.920;0.0319824
725.245056;-999.343018;-3.921;0.0295410
725.233032;-999.325073;-3.919;0.0205078
725.225037;-999.307068;-3.921;0.0302734
725.214050;-999.289062;-3.920;0.0214844
725.209045;-999.271057;-3.925;0.0187988
725.197021;-999.253052;-3.923;0.0234375
725.189026;-999.236023;-3.925;0.0268555
725.177063;-999.217041;-3.921;0.0236816
725.166016;-999.200073;-3.920;0.0283203
725.162048;-999.183044;-3.927;0.0256348
725.152039;-999.165039;-3.926;0.0236816
725.142029;-999.147034;-3.926;0.0258789
725.133057;-999.130066;-3.927;0.0219727
725.124023;-999.113037;-3.927;0.0246582
725.114014;-999.095032;-3.926;0.0234375
725.107056;-999.078064;-3.929;0.0280762
725.096008;-999.061035;-3.927;0.0229492
725.088013;-999.044067;-3.929;0.0236816
725.081055;-999.027039;-3.932;0.0505371
725.667053;-1000.298035;-3.886;0.0239258
725.655029;-1000.275024;-3.886;0.0261230
725.642029;-1000.252075;-3.886;0.0251465
725.632019;-1000.230042;-3.888;0.0241699
725.619019;-1000.208069;-3.887;0.0222168
725.610046;-1000.187073;-3.891;0.0224609
725.597046;-1000.164062;-3.890;0.0312500
725.587036;-1000.143066;-3.892;0.0263672
725.578064;-1000.122070;-3.895;0.0244141
725.563049;-1000.099060;-3.891;0.0273438
725.552063;-1000.078064;-3.892;0.0263672
725.541016;-1000.056030;-3.893;0.0246582
725.532043;-1000.036072;-3.895;0.0258789
725.523010;-1000.016052;-3.898;0.0231934
725.511047;-999.994019;-3.898;0.0278320
725.501038;-999.974060;-3.899;0.0241699
725.488037;-999.953064;-3.898;0.0288086
725.478027;-999.932068;-3.899;0.0236816
725.466064;-999.912048;-3.898;0.0261230
725.456055;-999.891052;-3.899;0.0239258
725.446045;-999.871033;-3.900;0.0246582
725.436035;-999.852051;-3.902;0.0270996
725.424011;-999.831055;-3.900;0.0253906
725.418030;-999.812073;-3.905;0.0302734
725.405029;-999.792053;-3.903;0.0339355
725.394043;-999.772034;-3.903;0.0185547
725.383057;-999.752075;-3.903;0.0217285
725.375061;-999.733032;-3.905;0.0224609
725.365051;-999.714050;-3.906;0.0266113
725.352051;-999.694031;-3.904;0.0275879
725.345032;-999.676025;-3.907;0.0244141
725.335022;-999.656067;-3.908;0.0283203
725.326050;-999.638062;-3.910;0.0222168
725.317017;-999.619019;-3.911;0.0222168
725.308044;-999.600037;-3.913;0.0236816
725.298035;-999.581055;-3.913;0.0229492
725.285034;-999.562073;-3.910;0.0256348
725.281006;-999.544067;-3.917;0.0307617
725.267029;-999.525024;-3.913;0.0246582
725.257019;-999.507019;-3.912;0.0241699
725.247009;-999.488037;-3.913;0.0222168
725.240051;-999.470032;-3.917;0.0541992
725.229065;-999.452026;-3.915;0.0209961
725.222046;-999.434021;-3.919;0.0263672
725.210022;-999.415039;-3.916;0.0219727
725.201050;-999.397034;-3.918;0.0246582
725.193054;-999.380066;-3.919;0.0266113
725.184021;-999.362061;-3.920;0.0258789
725.172058;-999.344055;-3.917;0.0253906
725.162048;-999.326050;-3.917;0.0261230
725.157043;-999.309021;-3.923;0.0249023
725.144043;-999.291077;-3.919;0.0275879
725.137024;-999.273071;-3.922;0.0283203
725.124023;-999.255066;-3.917;0.0200195
725.122009;-999.239075;-3.927;0.0258789
725.111023;-999.221069;-3.925;0.0258789
725.101013;-999.203064;-3.924;0.0280762
725.093018;-999.186035;-3.927;0.0246582
725.083008;-999.169067;-3.926;0.0261230
725.074036;-999.152039;-3.926;0.0295410
725.065063;-999.135071;-3.926;0.0209961
725.056030;-999.117065;-3.926;0.0297852
725.049011;-999.100037;-3.930;0.0251465
725.040039;-999.083069;-3.931;0.0285645
725.030029;-999.066040;-3.929;0.0251465
725.023010;-999.049072;-3.933;0.0270996
725.011047;-999.032043;-3.929;0.0266113
725.002014;-999.016052;-3.928;0.0246582
724.996033;-998.999023;-3.933;0.0268555
725.585022;-1000.278076;-3.885;0.0217285
725.573059;-1000.256042;-3.886;0.0214844
725.565063;-1000.235046;-3.890;0.0219727
725.556030;-1000.214050;-3.893;0.0319824
725.543030;-1000.192078;-3.891;0.0212402
725.532043;-1000.171021;-3.893;0.0278320
725.522034;-1000.150024;-3.894;0.0241699
725.511047;-1000.129028;-3.895;0.0314941
725.499023;-1000.107056;-3.895;0.0209961
725.490051;-1000.087036;-3.897;0.0285645
725.476013;-1000.065063;-3.894;0.0241699
725.468018;-1000.045044;-3.898;0.0253906
725.457031;-1000.025024;-3.898;0.0278320
725.444031;-1000.003052;-3.897;0.0192871
725.435059;-999.984070;-3.899;0.0180664
725.422058;-999.963074;-3.896;0.0234375
725.416016;-999.944031;-3.902;0.0300293
725.406006;-999.924072;-3.903;0.0249023
725.393005;-999.903076;-3.901;0.0224609
725.385010;-999.884033;-3.905;0.0261230
725.375061;-999.864075;-3.905;0.0227051
725.365051;-999.845032;-3.906;0.0209961
725.354065;-999.825073;-3.905;0.0258789
725.345032;-999.806030;-3.907;0.0297852
725.337036;-999.787048;-3.910;0.0273438
725.325012;-999.768066;-3.909;0.0275879
725.315063;-999.748047;-3.909;0.0256348
725.307007;-999.730042;-3.911;0.0288086
725.294006;-999.710022;-3.909;0.0241699
725.287048;-999.692078;-3.913;0.0297852
725.276062;-999.673035;-3.912;0.0292969
725.269043;-999.654053;-3.915;0.0305176
725.255005;-999.635071;-3.911;0.0187988
725.248047;-999.617065;-3.915;0.0270996
725.238037;-999.598022;-3.916;0.0429688
725.227051;-999.580017;-3.914;0.0310059
725.218018;-999.562073;-3.915;0.0292969
725.205017;-999.543030;-3.911;0.0153809
725.198059;-999.525024;-3.915;0.0161133
725.192017;-999.507019;-3.919;0.0244141
725.183044;-999.489075;-3.921;0.0251465
725.173035;-999.471069;-3.921;0.0187988
725.164062;-999.453064;-3.921;0.0349121
725.155029;-999.435059;-3.923;0.0297852
725.144043;-999.417053;-3.922;0.0261230
725.135010;-999.400024;-3.922;0.0249023
725.125061;-999.382019;-3.922;0.0256348
725.120056;-999.365051;-3.927;0.0373535
725.108032;-999.347046;-3.925;0.0178223
725.101013;-999.330017;-3.928;0.0317383
725.090027;-999.312073;-3.925;0.0192871
725.080017;-999.294067;-3.925;0.0300293
725.072021;-999.277039;-3.927;0.0273438
725.063049;-999.260071;-3.927;0.0273438
725.054016;-999.242065;-3.928;0.0288086
725.043030;-999.225037;-3.926;0.0222168
725.036011;-999.208069;-3.928;0.0241699
725.024048;-999.191040;-3.925;0.0290527
725.019043;-999.174072;-3.931;0.0256348
725.012024;-999.157043;-3.934;0.0290527
724.999023;-999.140076;-3.928;0.0190430
724.991028;-999.123047;-3.930;0.0273438
724.983032;-999.106018;-3.932;0.0197754
724.979065;-999.089050;-3.939;0.0375977
724.965027;-999.073059;-3.933;0.0288086
724.956055;-999.056030;-3.933;0.0283203
724.949036;-999.039062;-3.935;0.0219727
724.941040;-999.023071;-3.937;0.0302734
724.931030;-999.006042;-3.936;0.0234375
724.922058;-998.989075;-3.936;0.0283203
724.915039;-998.973022;-3.938;0.0229492
725.508057;-1000.262024;-3.889;0.0229492
725.498047;-1000.241028;-3.891;0.0251465
725.488037;-1000.220032;-3.893;0.0258789
725.478027;-1000.199036;-3.894;0.0244141
725.468018;-1000.179077;-3.895;0.0307617
725.456055;-1000.157043;-3.895;0.0239258
725.446045;-1000.137024;-3.897;0.0268555
725.436035;-1000.117065;-3.898;0.0258789
725.427063;-1000.097046;-3.900;0.0290527
725.414062;-1000.075073;-3.898;0.0290527
725.403015;-1000.055054;-3.898;0.0275879
725.396057;-1000.036072;-3.903;0.0280762
725.382019;-1000.015076;-3.899;0.0253906
725.372009;-999.995056;-3.901;0.0219727
725.363037;-999.976074;-3.903;0.0290527
725.354065;-999.956055;-3.904;0.0222168
725.346008;-999.937073;-3.908;0.0239258
725.332031;-999.917053;-3.903;0.0217285
725.322021;-999.897034;-3.905;0.0302734
725.311035;-999.878052;-3.905;0.0244141
725.303040;-999.859070;-3.908;0.0268555
725.294006;-999.840027;-3.909;0.0305176
725.283020;-999.821045;-3.908;0.0307617
725.274048;-999.802063;-3.910;0.0234375
725.264038;-999.783020;-3.910;0.0261230
725.255005;-999.764038;-3.912;0.0397949
725.244019;-999.745056;-3.911;0.0205078
725.240051;-999.727051;-3.918;0.0231934
725.228027;-999.709045;-3.916;0.0227051
725.216064;-999.690063;-3.914;0.0258789
725.207031;-999.671021;-3.915;0.0209961
725.200012;-999.653076;-3.919;0.0285645
725.187012;-999.634033;-3.915;0.0280762
725.177063;-999.616028;-3.916;0.0229492
725.167053;-999.598022;-3.915;0.0410156
725.160034;-999.580017;-3.919;0.0244141
725.150024;-999.562073;-3.919;0.0427246
725.141052;-999.544067;-3.919;0.0207520
725.128052;-999.526062;-3.916;0.0292969
725.123047;-999.508057;-3.921;0.0402832
725.115051;-999.491028;-3.923;0.0241699
725.103027;-999.473022;-3.920;0.0217285
725.096008;-999.455017;-3.924;0.0322266
725.086060;-999.438049;-3.923;0.0270996
725.080017;-999.420044;-3.928;0.0302734
725.068054;-999.403076;-3.925;0.0244141
725.062012;-999.386047;-3.929;0.0197754
725.050049;-999.368042;-3.926;0.0300293
725.043030;-999.351074;-3.929;0.0393066
725.032043;-999.333069;-3.927;0.0295410
725.025024;-999.316040;-3.930;0.0222168
725.014038;-999.299072;-3.928;0.0256348
725.005005;-999.282043;-3.929;0.0202637
724.998047;-999.265076;-3.931;0.0249023
724.990051;-999.248047;-3.933;0.0290527
724.978027;-999.231018;-3.929;0.0231934
724.971008;-999.214050;-3.932;0.0273438
724.963013;-999.197021;-3.934;0.0224609
724.955017;-999.180054;-3.935;0.0205078
724.943054;-999.163025;-3.931;0.0219727
724.939026;-999.146057;-3.939;0.0253906
724.929016;-999.130066;-3.937;0.0246582
724.917053;-999.113037;-3.934;0.0178223
724.912048;-999.096069;-3.939;0.0336914
724.902039;-999.080017;-3.938;0.0256348
724.894043;-999.063049;-3.939;0.0222168
724.886047;-999.046021;-3.941;0.0229492
724.875061;-999.030029;-3.938;0.0166016
724.868042;-999.013062;-3.941;0.0300293
724.858032;-998.997070;-3.938;0.0168457
724.852051;-998.980042;-3.943;0.0258789
724.843018;-998.964050;-3.943;0.0251465
724.836060;-998.947021;-3.946;0.0236816
725.425049;-1000.229065;-3.896;0.0268555
725.414062;-1000.209045;-3.896;0.0253906
725.403015;-1000.188049;-3.897;0.0270996
725.392029;-1000.168030;-3.897;0.0219727
725.382019;-1000.147034;-3.898;0.0227051
725.371033;-1000.127075;-3.898;0.0212402
725.360046;-1000.107056;-3.898;0.0241699
725.351013;-1000.087036;-3.900;0.0283203
725.342041;-1000.068054;-3.903;0.0297852
725.332031;-1000.048035;-3.903;0.0256348
725.320007;-1000.028076;-3.902;0.0341797
725.312012;-1000.009033;-3.905;0.0288086
725.302063;-999.989075;-3.906;0.0222168
725.293030;-999.970032;-3.908;0.0285645
725.280029;-999.950073;-3.904;0.0231934
725.270020;-999.931030;-3.906;0.0292969
725.261047;-999.912048;-3.907;0.0209961
725.249023;-999.892029;-3.905;0.0190430
725.240051;-999.874023;-3.907;0.0173340
725.230042;-999.855042;-3.907;0.0280762
725.224060;-999.837036;-3.913;0.0292969
725.213013;-999.818054;-3.912;0.0236816
725.204041;-999.799072;-3.913;0.0212402
725.195007;-999.781067;-3.915;0.0175781
725.185059;-999.762024;-3.914;0.0302734
725.177063;-999.744019;-3.917;0.0234375
725.165039;-999.725037;-3.914;0.0249023
725.156006;-999.707031;-3.916;0.0236816
725.147034;-999.689026;-3.917;0.0300293
725.138062;-999.671021;-3.918;0.0185547
725.129028;-999.653076;-3.919;0.0258789
725.119019;-999.635071;-3.918;0.0305176
725.109009;-999.617065;-3.918;0.0246582
725.102051;-999.600037;-3.921;0.0214844
725.092041;-999.582031;-3.921;0.0253906
725.080017;-999.564026;-3.918;0.0170898
725.076050;-999.546021;-3.925;0.0202637
725.064026;-999.529053;-3.923;0.0263672
725.056030;-999.511047;-3.924;0.0317383
725.049011;-999.494019;-3.928;0.0231934
725.035034;-999.476074;-3.922;0.0231934
725.027039;-999.459045;-3.924;0.0273438
725.018005;-999.441040;-3.924;0.0280762
725.010010;-999.424072;-3.926;0.0288086
725.000061;-999.407043;-3.925;0.0214844
724.993042;-999.390076;-3.928;0.0288086
724.983032;-999.373047;-3.927;0.0236816
724.975037;-999.355042;-3.930;0.0256348
724.965027;-999.339050;-3.929;0.0229492
724.959045;-999.321045;-3.933;0.0258789
724.948059;-999.304077;-3.930;0.0278320
724.941040;-999.288025;-3.933;0.0209961
724.930054;-999.271057;-3.931;0.0253906
724.924011;-999.254028;-3.935;0.0307617
724.914062;-999.237061;-3.934;0.0273438
724.904053;-999.220032;-3.933;0.0253906
724.896057;-999.203064;-3.935;0.0324707
724.887024;-999.187073;-3.935;0.0173340
724.879028;-999.170044;-3.936;0.0380859
724.871033;-999.153076;-3.937;0.0263672
724.862061;-999.137024;-3.937;0.0200195
724.855042;-999.120056;-3.940;0.0241699
724.844055;-999.104065;-3.938;0.0263672
724.834045;-999.088074;-3.936;0.0285645
724.828064;-999.071045;-3.939;0.0266113
724.819031;-999.055054;-3.939;0.0300293
724.812012;-999.038025;-3.942;0.0236816
724.802063;-999.022034;-3.941;0.0246582
724.792053;-999.006042;-3.938;0.0317383
724.784058;-998.990051;-3.939;0.0351562
724.775024;-998.973022;-3.940;0.0190430
724.767029;-998.957031;-3.940;0.0246582
724.760010;-998.940063;-3.944;0.0261230
724.748047;-998.925049;-3.938;0.0312500
725.341064;-1000.199036;-3.900;0.0258789
725.331055;-1000.179077;-3.901;0.0336914
725.323059;-1000.160034;-3.905;0.0231934
725.313049;-1000.140076;-3.906;0.0327148
725.301025;-1000.120056;-3.904;0.0222168
725.292053;-1000.100037;-3.906;0.0424805
725.281006;-1000.081055;-3.906;0.0229492
725.270020;-1000.061035;-3.906;0.0278320
725.263062;-1000.043030;-3.910;0.0346680
725.252014;-1000.023071;-3.909;0.0207520
725.241028;-1000.004028;-3.908;0.0207520
725.231018;-999.984070;-3.909;0.0209961
725.223022;-999.966064;-3.912;0.0239258
725.212036;-999.947021;-3.911;0.0278320
725.201050;-999.928040;-3.911;0.0297852
725.193054;-999.910034;-3.913;0.0261230
725.183044;-999.891052;-3.913;0.0200195
725.172058;-999.872070;-3.912;0.0214844
725.165039;-999.854065;-3.915;0.0227051
725.156006;-999.835022;-3.917;0.0266113
725.146057;-999.817078;-3.917;0.0261230
725.137024;-999.799072;-3.918;0.0273438
725.128052;-999.781067;-3.920;0.0312500
725.117004;-999.762024;-3.918;0.0268555
725.109009;-999.744019;-3.921;0.0270996
725.100037;-999.726074;-3.922;0.0270996
725.089050;-999.708069;-3.920;0.0310059
725.080017;-999.690063;-3.920;0.0207520
725.072021;-999.673035;-3.923;0.0227051
725.065063;-999.655029;-3.926;0.0253906
725.055054;-999.637024;-3.926;0.0300293
725.042053;-999.619019;-3.921;0.0190430
725.035034;-999.602051;-3.924;0.0270996
725.023010;-999.584045;-3.922;0.0239258
725.016052;-999.567078;-3.925;0.0305176
725.008057;-999.549072;-3.927;0.0273438
724.999023;-999.532043;-3.927;0.0246582
724.991028;-999.515076;-3.929;0.0273438
724.983032;-999.497070;-3.932;0.0192871
724.974060;-999.480042;-3.932;0.0261230
724.962036;-999.463074;-3.928;0.0229492
724.956055;-999.446045;-3.933;0.0222168
724.945007;-999.429077;-3.930;0.0236816
724.937012;-999.412048;-3.932;0.0285645
724.927063;-999.395020;-3.931;0.0270996
724.919006;-999.378052;-3.933;0.0285645
724.909058;-999.361023;-3.931;0.0253906
724.900024;-999.344055;-3.932;0.0231934
724.892029;-999.328064;-3.933;0.0280762
724.883057;-999.311035;-3.933;0.0205078
724.877014;-999.294067;-3.938;0.0268555
724.868042;-999.277039;-3.938;0.0351562
724.858032;-999.260071;-3.936;0.0249023
724.849060;-999.244019;-3.937;0.0268555
724.841064;-999.227051;-3.938;0.0283203
724.831055;-999.211060;-3.936;0.0305176
724.825012;-999.194031;-3.941;0.0297852
724.813049;-999.178040;-3.935;0.0292969
724.808044;-999.161072;-3.943;0.0187988
724.800049;-999.144043;-3.943;0.0285645
724.792053;-999.128052;-3.945;0.0278320
724.781006;-999.112061;-3.941;0.0273438
724.775024;-999.095032;-3.946;0.0236816
724.763062;-999.079041;-3.941;0.0190430
724.756042;-999.063049;-3.943;0.0261230
724.750061;-999.046021;-3.948;0.0258789
724.741028;-999.030029;-3.947;0.0231934
724.732056;-999.014038;-3.947;0.0295410
724.723022;-998.997070;-3.947;0.0205078
724.716064;-998.981018;-3.949;0.0239258
724.706055;-998.965027;-3.948;0.0170898
724.698059;-998.949036;-3.949;0.0388184
724.689026;-998.933044;-3.949;0.0297852
724.682007;-998.916077;-3.951;0.0346680
724.674011;-998.900024;-3.952;0.0249023
725.267029;-1000.191040;-3.902;0.0258789
725.258057;-1000.172058;-3.903;0.0266113
725.249023;-1000.152039;-3.905;0.0258789
725.239014;-1000.133057;-3.905;0.0261230
725.230042;-1000.114075;-3.908;0.0329590
725.221008;-1000.095032;-3.910;0.0300293
725.211060;-1000.076050;-3.909;0.0270996
725.203064;-1000.058044;-3.913;0.0227051
725.191040;-1000.038025;-3.910;0.0209961
725.178040;-1000.019043;-3.907;0.0224609
725.171021;-1000.000061;-3.911;0.0249023
725.160034;-999.981018;-3.910;0.0236816
725.150024;-999.963074;-3.911;0.0283203
725.143005;-999.945068;-3.915;0.0371094
725.134033;-999.926025;-3.916;0.0207520
725.122009;-999.908020;-3.914;0.0202637
725.113037;-999.889038;-3.915;0.0190430
725.103027;-999.871033;-3.915;0.0256348
725.095032;-999.853027;-3.917;0.0300293
725.087036;-999.835022;-3.919;0.0224609
725.079041;-999.817078;-3.922;0.0295410
725.069031;-999.799072;-3.921;0.0270996
725.058044;-999.781067;-3.920;0.0297852
725.049011;-999.763062;-3.920;0.0273438
725.040039;-999.746033;-3.921;0.0175781
725.032043;-999.728027;-3.923;0.0300293
725.023010;-999.710022;-3.925;0.0268555
725.014038;-999.693054;-3.925;0.0314941
725.003052;-999.675049;-3.924;0.0244141
724.996033;-999.657043;-3.926;0.0258789
724.983032;-999.640076;-3.922;0.0185547
724.979065;-999.623047;-3.929;0.0358887
724.967041;-999.605042;-3.926;0.0239258
724.958008;-999.588074;-3.927;0.0341797
724.951050;-999.571045;-3.929;0.0187988
724.941040;-999.553040;-3.929;0.0329590
724.931030;-999.537048;-3.928;0.0195312
724.924011;-999.519043;-3.931;0.0317383
724.914062;-999.502075;-3.929;0.0209961
724.905029;-999.485046;-3.930;0.0175781
724.896057;-999.468018;-3.929;0.0273438
724.891052;-999.451050;-3.936;0.0266113
724.880005;-999.435059;-3.933;0.0307617
724.874023;-999.418030;-3.937;0.0178223
724.861023;-999.401062;-3.933;0.0239258
724.853027;-999.384033;-3.934;0.0275879
724.843018;-999.368042;-3.932;0.0219727
724.836060;-999.351074;-3.936;0.0219727
724.829041;-999.334045;-3.938;0.0227051
724.820007;-999.317078;-3.939;0.0249023
724.809021;-999.301025;-3.936;0.0554199
724.803040;-999.284058;-3.940;0.0214844
724.793030;-999.268066;-3.938;0.0270996
724.787048;-999.251038;-3.943;0.0244141
724.774048;-999.235046;-3.936;0.0209961
724.767029;-999.219055;-3.939;0.0266113
724.759033;-999.202026;-3.941;0.0231934
724.750061;-999.186035;-3.940;0.0295410
724.742004;-999.169067;-3.942;0.0246582
724.733032;-999.153076;-3.941;0.0239258
724.723022;-999.137024;-3.939;0.0168457
724.717041;-999.120056;-3.944;0.0212402
724.708008;-999.104065;-3.943;0.0246582
724.699036;-999.088074;-3.944;0.0219727
724.692017;-999.072021;-3.946;0.0239258
724.685059;-999.055054;-3.949;0.0253906
724.677063;-999.039062;-3.949;0.0297852
724.666016;-999.023071;-3.946;0.0212402
724.659058;-999.007019;-3.948;0.0327148
724.650024;-998.991028;-3.949;0.0219727
724.643005;-998.974060;-3.951;0.0263672
724.634033;-998.958069;-3.951;0.0270996
724.624023;-998.943054;-3.949;0.0270996
724.617004;-998.926025;-3.951;0.0285645
724.608032;-998.910034;-3.951;0.0319824
724.600037;-998.894043;-3.951;0.0263672
724.590027;-998.879028;-3.950;0.0278320
725.188049;-1000.167053;-3.908;0.0219727
725.181030;-1000.148071;-3.912;0.0324707
725.169006;-1000.129028;-3.909;0.0234375
725.160034;-1000.110046;-3.911;0.0290527
725.150024;-1000.091064;-3.911;0.0249023
725.140015;-1000.073059;-3.911;0.0261230
725.133057;-1000.055054;-3.915;0.0349121
725.121033;-1000.035034;-3.913;0.0244141
725.114014;-1000.018066;-3.917;0.0251465
725.104065;-999.999023;-3.917;0.0190430
725.093018;-999.980042;-3.916;0.0229492
725.082031;-999.962036;-3.914;0.0256348
725.077026;-999.944031;-3.921;0.0222168
725.062012;-999.925049;-3.914;0.0500488
725.054016;-999.908020;-3.916;0.0244141
725.048035;-999.890076;-3.921;0.0251465
725.040039;-999.872070;-3.923;0.0278320
725.029053;-999.854065;-3.922;0.0292969
725.018005;-999.836060;-3.920;0.0234375
725.008057;-999.818054;-3.920;0.0261230
725.002014;-999.801025;-3.924;0.0288086
724.989014;-999.783020;-3.920;0.0283203
724.983032;-999.765076;-3.925;0.0336914
724.974060;-999.748047;-3.925;0.0251465
724.965027;-999.731018;-3.926;0.0332031
724.957031;-999.713074;-3.928;0.0251465
724.945007;-999.695068;-3.925;0.0327148
724.937012;-999.678040;-3.927;0.0273438
724.930054;-999.661072;-3.930;0.0219727
724.920044;-999.644043;-3.929;0.0275879
724.911011;-999.627075;-3.930;0.0363770
724.904053;-999.610046;-3.932;0.0290527
724.893005;-999.593018;-3.929;0.0251465
724.882019;-999.576050;-3.928;0.0202637
724.876038;-999.558044;-3.932;0.0285645
724.864014;-999.542053;-3.928;0.0239258
724.858032;-999.525024;-3.933;0.0273438
724.851013;-999.508057;-3.936;0.0285645
724.838013;-999.491028;-3.930;0.0200195
724.834045;-999.474060;-3.937;0.0212402
724.826050;-999.457031;-3.939;0.0227051
724.814026;-999.441040;-3.934;0.0268555
724.806030;-999.424072;-3.936;0.0290527
724.797058;-999.407043;-3.935;0.0229492
724.791016;-999.390076;-3.941;0.0275879
724.781006;-999.374023;-3.938;0.0278320
724.771057;-999.358032;-3.938;0.0297852
724.765015;-999.341064;-3.941;0.0278320
724.753052;-999.325073;-3.937;0.0273438
724.746033;-999.308044;-3.940;0.0278320
724.739014;-999.292053;-3.942;0.0334473
724.729004;-999.276062;-3.941;0.0224609
724.723022;-999.259033;-3.945;0.0314941
724.712036;-999.243042;-3.941;0.0209961
724.704041;-999.226074;-3.944;0.0317383
724.696045;-999.210022;-3.945;0.0280762
724.687012;-999.194031;-3.943;0.0339355
724.678040;-999.178040;-3.944;0.0246582
724.670044;-999.161072;-3.945;0.0290527
724.662048;-999.145020;-3.946;0.0317383
724.654053;-999.129028;-3.947;0.0253906
724.647034;-999.112061;-3.950;0.0227051
724.636047;-999.097046;-3.947;0.0268555
724.630005;-999.080017;-3.951;0.0241699
724.622009;-999.064026;-3.951;0.0234375
724.610046;-999.049072;-3.946;0.0305176
724.603027;-999.032043;-3.950;0.0249023
724.595032;-999.016052;-3.951;0.0241699
724.588013;-998.999023;-3.954;0.0283203
724.578064;-998.984070;-3.951;0.0278320
724.570007;-998.968018;-3.952;0.0256348
724.562012;-998.952026;-3.952;0.0170898
724.553040;-998.936035;-3.952;0.0234375
724.544006;-998.920044;-3.952;0.0314941
724.536011;-998.904053;-3.952;0.0314941
724.530029;-998.887024;-3.956;0.0356445
724.518005;-998.872070;-3.951;0.0200195
724.512024;-998.856018;-3.955;0.0192871
725.098022;-1000.126038;-3.911;0.0200195
725.092041;-1000.108032;-3.916;0.0219727
725.081055;-1000.089050;-3.914;0.0222168
725.072021;-1000.071045;-3.916;0.0258789
725.063049;-1000.053040;-3.916;0.0222168
725.054016;-1000.035034;-3.918;0.0268555
725.044006;-1000.017029;-3.918;0.0236816
725.033020;-999.998047;-3.917;0.0263672
725.026062;-999.980042;-3.921;0.0244141
725.017029;-999.963074;-3.920;0.0266113
725.009033;-999.945068;-3.923;0.0270996
724.997009;-999.927063;-3.921;0.0234375
724.990051;-999.909058;-3.923;0.0273438
724.981018;-999.891052;-3.924;0.0288086
724.971008;-999.874023;-3.924;0.0505371
724.960022;-999.856018;-3.923;0.0336914
724.953064;-999.838074;-3.925;0.0356445
724.942017;-999.821045;-3.924;0.0278320
724.933044;-999.804077;-3.925;0.0239258
724.924011;-999.786072;-3.925;0.0239258
724.918030;-999.769043;-3.929;0.0246582
724.908020;-999.752075;-3.928;0.0268555
724.903015;-999.734070;-3.934;0.0273438
724.891052;-999.717041;-3.931;0.0222168
724.879028;-999.700073;-3.927;0.0214844
724.872009;-999.683044;-3.930;0.0209961
724.862061;-999.666077;-3.930;0.0229492
724.855042;-999.649048;-3.933;0.0224609
724.845032;-999.632019;-3.931;0.0490723
724.837036;-999.615051;-3.933;0.0205078
724.829041;-999.598022;-3.934;0.0239258
724.820007;-999.581055;-3.934;0.0224609
724.809021;-999.564026;-3.932;0.0239258
724.804016;-999.548035;-3.937;0.0280762
724.794006;-999.531067;-3.937;0.0212402
724.787048;-999.514038;-3.939;0.0170898
724.775024;-999.498047;-3.935;0.0192871
724.767029;-999.481018;-3.936;0.0214844
724.760010;-999.464050;-3.940;0.0305176
724.752014;-999.448059;-3.941;0.0256348
724.742004;-999.431030;-3.939;0.0222168
724.734009;-999.415039;-3.941;0.0202637
724.727051;-999.398071;-3.943;0.0263672
724.719055;-999.382019;-3.944;0.0222168
724.707031;-999.365051;-3.940;0.0236816
724.700012;-999.349060;-3.943;0.0349121
724.691040;-999.333069;-3.943;0.0258789
724.683044;-999.316040;-3.943;0.0258789
724.673035;-999.300049;-3.942;0.0273438
724.665039;-999.284058;-3.943;0.0239258
724.659058;-999.267029;-3.947;0.0273438
724.650024;-999.251038;-3.947;0.0246582
724.643005;-999.234070;-3.949;0.0295410
724.633057;-999.218018;-3.948;0.0261230
724.625061;-999.202026;-3.949;0.0246582
724.616028;-999.186035;-3.948;0.0253906
724.608032;-999.170044;-3.950;0.0305176
724.601013;-999.154053;-3.952;0.0275879
724.591064;-999.138062;-3.950;0.0319824
724.584045;-999.121033;-3.953;0.0290527
724.575012;-999.105042;-3.952;0.0205078
724.569031;-999.088074;-3.956;0.0234375
724.557007;-999.073059;-3.952;0.0241699
724.549011;-999.057068;-3.953;0.0256348
724.539062;-999.042053;-3.950;0.0170898
724.532043;-999.025024;-3.953;0.0170898
724.525024;-999.009033;-3.956;0.0341797
724.516052;-998.993042;-3.956;0.0178223
724.509033;-998.976074;-3.958;0.0200195
724.499023;-998.961060;-3.955;0.0307617
724.491028;-998.945068;-3.958;0.0214844
724.482056;-998.929077;-3.957;0.0341797
724.473022;-998.913025;-3.956;0.0300293
724.467041;-998.896057;-3.960;0.0263672
724.458008;-998.881042;-3.959;0.0200195
724.448059;-998.865051;-3.957;0.0278320
724.442017;-998.848022;-3.962;0.0356445
724.429016;-998.835022;-3.953;0.0222168
725.021057;-1000.107056;-3.916;0.0295410
725.011047;-1000.089050;-3.915;0.0251465
725.003052;-1000.071045;-3.918;0.0244141
724.992004;-1000.053040;-3.917;0.0278320
724.983032;-1000.035034;-3.918;0.0246582
724.975037;-1000.017029;-3.919;0.0234375
724.965027;-999.999023;-3.919;0.0214844
724.955017;-999.982056;-3.919;0.0339355
724.947021;-999.964050;-3.920;0.0268555
724.938049;-999.946045;-3.922;0.0249023
724.932007;-999.929077;-3.926;0.0224609
724.917053;-999.911072;-3.919;0.0185547
724.913025;-999.894043;-3.926;0.0251465
724.902039;-999.876038;-3.924;0.0351562
724.893005;-999.859070;-3.924;0.0273438
724.884033;-999.842041;-3.925;0.0241699
724.876038;-999.825073;-3.926;0.0407715
724.865051;-999.808044;-3.924;0.0290527
724.857056;-999.790039;-3.926;0.0209961
724.847046;-999.773071;-3.926;0.0209961
724.841064;-999.756042;-3.930;0.0229492
724.830017;-999.739075;-3.928;0.0251465
724.823059;-999.722046;-3.931;0.0270996
724.811035;-999.705017;-3.926;0.0219727
724.802063;-999.688049;-3.927;0.0300293
724.795044;-999.671021;-3.930;0.0280762
724.791016;-999.654053;-3.936;0.0246582
724.779053;-999.638062;-3.932;0.0261230
724.772034;-999.621033;-3.935;0.0280762
724.760010;-999.604065;-3.932;0.0185547
724.753052;-999.588074;-3.934;0.0214844
724.745056;-999.571045;-3.935;0.0187988
724.736023;-999.554077;-3.936;0.0207520
724.725037;-999.538025;-3.933;0.0187988
724.720032;-999.521057;-3.938;0.0229492
724.710022;-999.505066;-3.937;0.0263672
724.703064;-999.488037;-3.940;0.0278320
724.695007;-999.472046;-3.940;0.0270996
724.685059;-999.455017;-3.939;0.0217285
724.681030;-999.439026;-3.946;0.0363770
724.668030;-999.423035;-3.940;0.0273438
724.660034;-999.406067;-3.941;0.0224609
724.650024;-999.391052;-3.939;0.0205078
724.643005;-999.374023;-3.943;0.0209961
724.633057;-999.358032;-3.941;0.0253906
724.628052;-999.341064;-3.947;0.0324707
724.619019;-999.325073;-3.946;0.0183105
724.611023;-999.308044;-3.947;0.0239258
724.601013;-999.293030;-3.945;0.0261230
724.593018;-999.276062;-3.946;0.0234375
724.582031;-999.261047;-3.943;0.0192871
724.576050;-999.244019;-3.947;0.0290527
724.566040;-999.228027;-3.946;0.0219727
724.562012;-999.211060;-3.952;0.0256348
724.553040;-999.195068;-3.952;0.0312500
724.541016;-999.180054;-3.946;0.0292969
724.535034;-999.163025;-3.951;0.0278320
724.525024;-999.148071;-3.949;0.0256348
724.519043;-999.131042;-3.953;0.0263672
724.510010;-999.115051;-3.953;0.0249023
724.501038;-999.099060;-3.951;0.0207520
724.494019;-999.083069;-3.954;0.0241699
724.485046;-999.067078;-3.954;0.0263672
724.474060;-999.052063;-3.951;0.0307617
724.468018;-999.035034;-3.954;0.0241699
724.461060;-999.018066;-3.957;0.0334473
724.451050;-999.003052;-3.954;0.0278320
724.443054;-998.987061;-3.956;0.0263672
724.435059;-998.971069;-3.957;0.0263672
724.425049;-998.955017;-3.955;0.0236816
724.419006;-998.939026;-3.959;0.0278320
724.412048;-998.922058;-3.962;0.0278320
724.400024;-998.907043;-3.956;0.0256348
724.393005;-998.891052;-3.960;0.0263672
724.386047;-998.874023;-3.962;0.0278320
724.377014;-998.858032;-3.962;0.0219727
724.368042;-998.843018;-3.960;0.0192871
724.361023;-998.826050;-3.963;0.0270996
724.351013;-998.811035;-3.960;0.0214844
724.342041;-998.795044;-3.960;0.0249023
724.944031;-1000.090027;-3.919;0.0195312
724.939026;-1000.073059;-3.925;0.0214844
724.929016;-1000.055054;-3.924;0.0280762
724.919006;-1000.037048;-3.924;0.0256348
724.913025;-1000.020020;-3.930;0.0222168
724.903015;-1000.003052;-3.928;0.0290527
724.892029;-999.985046;-3.926;0.0263672
724.884033;-999.967041;-3.929;0.0185547
724.872009;-999.950073;-3.925;0.0219727
724.866028;-999.933044;-3.930;0.0625000
724.857056;-999.915039;-3.930;0.0207520
724.848022;-999.898071;-3.930;0.0207520
724.840027;-999.881042;-3.932;0.0329590
724.827026;-999.864075;-3.927;0.0249023
724.823059;-999.847046;-3.934;0.0295410
724.811035;-999.830017;-3.931;0.0229492
724.804016;-999.813049;-3.934;0.0332031
724.794006;-999.796021;-3.933;0.0292969
724.784058;-999.779053;-3.931;0.0217285
724.775024;-999.762024;-3.931;0.0224609
724.769043;-999.745056;-3.936;0.0253906
724.758057;-999.728027;-3.933;0.0178223
724.750061;-999.711060;-3.934;0.0205078
724.741028;-999.695068;-3.935;0.0275879
724.732056;-999.678040;-3.935;0.0249023
724.726013;-999.661072;-3.939;0.0207520
724.715027;-999.645020;-3.937;0.0229492
724.707031;-999.628052;-3.938;0.0241699
724.698059;-999.612061;-3.937;0.0229492
724.692017;-999.595032;-3.942;0.0236816
724.683044;-999.578064;-3.942;0.0270996
724.672058;-999.562073;-3.939;0.0244141
724.668030;-999.545044;-3.945;0.0263672
724.655029;-999.529053;-3.940;0.0209961
724.648010;-999.513062;-3.942;0.0280762
724.638062;-999.497070;-3.940;0.0202637
724.630005;-999.480042;-3.943;0.0258789
724.620056;-999.464050;-3.941;0.0239258
724.617004;-999.447021;-3.949;0.0322266
724.605042;-999.431030;-3.945;0.0175781
724.599060;-999.414062;-3.949;0.0246582
724.588013;-999.399048;-3.945;0.0212402
724.579041;-999.383057;-3.944;0.0197754
724.571045;-999.366028;-3.946;0.0219727
724.565063;-999.350037;-3.950;0.0275879
724.555054;-999.334045;-3.948;0.0253906
724.546021;-999.318054;-3.948;0.0234375
724.538025;-999.302063;-3.948;0.0297852
724.530029;-999.286072;-3.949;0.0290527
724.520020;-999.270020;-3.948;0.0383301
724.513062;-999.253052;-3.951;0.0234375
724.506042;-999.237061;-3.953;0.0283203
724.498047;-999.221069;-3.953;0.0256348
724.490051;-999.205017;-3.955;0.0327148
724.480042;-999.189026;-3.953;0.0234375
724.471008;-999.173035;-3.953;0.0278320
724.464050;-999.157043;-3.955;0.0219727
724.457031;-999.140076;-3.957;0.0285645
724.447021;-999.125061;-3.956;0.0249023
724.439026;-999.109070;-3.956;0.0278320
724.431030;-999.092041;-3.958;0.0249023
724.423035;-999.076050;-3.958;0.0241699
724.413025;-999.061035;-3.956;0.0192871
724.407043;-999.044067;-3.961;0.0412598
724.397034;-999.028076;-3.959;0.0385742
724.386047;-999.014038;-3.953;0.0214844
724.380005;-998.997070;-3.960;0.0227051
724.374023;-998.980042;-3.963;0.0327148
724.365051;-998.964050;-3.963;0.0256348
724.356018;-998.948059;-3.961;0.0305176
724.349060;-998.931030;-3.966;0.0256348
724.341064;-998.915039;-3.966;0.0312500
724.332031;-998.899048;-3.966;0.0270996
724.322021;-998.884033;-3.963;0.0297852
724.317017;-998.866028;-3.970;0.0219727
724.307007;-998.851074;-3.968;0.0261230
724.297058;-998.836060;-3.965;0.0234375
724.291016;-998.818054;-3.969;0.0305176
724.282043;-998.802063;-3.970;0.0239258
724.274048;-998.786072;-3.970;0.0290527
724.859009;-1000.058044;-3.923;0.0192871
724.852051;-1000.041077;-3.927;0.0266113
724.841064;-1000.023071;-3.925;0.0166016
724.831055;-1000.006042;-3.924;0.0214844
724.827026;-999.989075;-3.930;0.0261230
724.817017;-999.972046;-3.930;0.0302734
724.807007;-999.955017;-3.928;0.0207520
724.798035;-999.937073;-3.930;0.0222168
724.790039;-999.920044;-3.932;0.0270996
724.780029;-999.903076;-3.931;0.0209961
724.770020;-999.886047;-3.929;0.0270996
724.763062;-999.869019;-3.932;0.0190430
724.757019;-999.853027;-3.936;0.0285645
724.745056;-999.836060;-3.932;0.0231934
724.735046;-999.819031;-3.931;0.0288086
724.730042;-999.802063;-3.937;0.0192871
724.722046;-999.785034;-3.938;0.0205078
724.711060;-999.768066;-3.936;0.0253906
724.704041;-999.752075;-3.939;0.0178223
724.696045;-999.735046;-3.940;0.0234375
724.685059;-999.719055;-3.937;0.0222168
724.676025;-999.702026;-3.937;0.0200195
724.667053;-999.686035;-3.936;0.0244141
724.661011;-999.669067;-3.941;0.0222168
724.651062;-999.653076;-3.939;0.0410156
724.643005;-999.636047;-3.941;0.0292969
724.633057;-999.620056;-3.939;0.0307617
724.627014;-999.603027;-3.944;0.0236816
724.618042;-999.587036;-3.943;0.0314941
724.610046;-999.570068;-3.945;0.0266113
724.600037;-999.554077;-3.943;0.0197754
724.594055;-999.538025;-3.946;0.0266113
724.582031;-999.522034;-3.943;0.0212402
724.575012;-999.505066;-3.945;0.0302734
724.567017;-999.489075;-3.946;0.0212402
724.561035;-999.472046;-3.950;0.0224609
724.552063;-999.456055;-3.950;0.0295410
724.544006;-999.440063;-3.950;0.0246582
724.533020;-999.424072;-3.948;0.0283203
724.526062;-999.408020;-3.950;0.0275879
724.517029;-999.392029;-3.950;0.0227051
724.510010;-999.375061;-3.952;0.0261230
724.501038;-999.359070;-3.952;0.0268555
724.492004;-999.343018;-3.952;0.0249023
724.484009;-999.327026;-3.952;0.0256348
724.474060;-999.312073;-3.950;0.0256348
724.467041;-999.295044;-3.953;0.0312500
724.460022;-999.278076;-3.956;0.0283203
724.451050;-999.263062;-3.955;0.0249023
724.442017;-999.247070;-3.955;0.0241699
724.433044;-999.231018;-3.954;0.0312500
724.425049;-999.215027;-3.955;0.0249023
724.419006;-999.198059;-3.959;0.0205078
724.409058;-999.183044;-3.957;0.0241699
724.401062;-999.166077;-3.958;0.0278320
724.395020;-999.149048;-3.963;0.0263672
724.384033;-999.134033;-3.959;0.0249023
724.376038;-999.118042;-3.959;0.0349121
724.369019;-999.102051;-3.962;0.0270996
724.359009;-999.086060;-3.961;0.0285645
724.349060;-999.071045;-3.957;0.0322266
724.342041;-999.054077;-3.961;0.0263672
724.336060;-999.037048;-3.966;0.0334473
724.327026;-999.021057;-3.965;0.0212402
724.318054;-999.006042;-3.964;0.0249023
724.309021;-998.990051;-3.963;0.0270996
724.301025;-998.974060;-3.964;0.0278320
724.294006;-998.957031;-3.967;0.0249023
724.284058;-998.942078;-3.964;0.0219727
724.276062;-998.925049;-3.967;0.0268555
724.268005;-998.909058;-3.966;0.0256348
724.260010;-998.892029;-3.969;0.0310059
724.252014;-998.876038;-3.970;0.0234375
724.242004;-998.861023;-3.968;0.0290527
724.238037;-998.842041;-3.975;0.0324707
724.228027;-998.826050;-3.974;0.0239258
724.217041;-998.813049;-3.968;0.0295410
724.210022;-998.795044;-3.971;0.0246582
724.200012;-998.780029;-3.970;0.0212402
724.194031;-998.762024;-3.976;0.0329590
724.783020;-1000.045044;-3.925;0.0283203
724.779053;-1000.028076;-3.932;0.0275879
724.766052;-1000.011047;-3.928;0.0371094
724.758057;-999.994019;-3.929;0.0224609
724.748047;-999.977051;-3.929;0.0183105
724.740051;-999.960022;-3.930;0.0258789
724.730042;-999.943054;-3.928;0.0266113
724.722046;-999.926025;-3.931;0.0197754
724.714050;-999.910034;-3.931;0.0300293
724.706055;-999.893066;-3.933;0.0261230
724.695007;-999.876038;-3.931;0.0219727
724.688049;-999.859070;-3.933;0.0261230
724.680054;-999.843018;-3.934;0.0234375
724.669006;-999.826050;-3.932;0.0214844
724.664062;-999.809021;-3.937;0.0256348
724.654053;-999.793030;-3.937;0.0305176
724.647034;-999.776062;-3.940;0.0380859
724.637024;-999.759033;-3.937;0.0300293
724.627014;-999.743042;-3.936;0.0251465
724.620056;-999.727051;-3.938;0.0270996
724.611023;-999.710022;-3.938;0.0231934
724.603027;-999.694031;-3.940;0.0217285
724.595032;-999.677063;-3.941;0.0288086
724.586060;-999.661072;-3.941;0.0202637
724.577026;-999.645020;-3.940;0.0231934
724.569031;-999.628052;-3.941;0.0253906
724.563049;-999.612061;-3.945;0.0253906
724.553040;-999.596069;-3.944;0.0190430
724.545044;-999.579041;-3.945;0.0373535
724.534058;-999.564026;-3.942;0.0253906
724.527039;-999.547058;-3.944;0.0275879
724.518005;-999.531067;-3.944;0.0219727
724.512024;-999.515076;-3.947;0.0395508
724.504028;-999.498047;-3.949;0.0253906
724.493042;-999.483032;-3.945;0.0283203
724.485046;-999.466064;-3.947;0.0156250
724.477051;-999.450073;-3.947;0.0290527
724.469055;-999.434021;-3.949;0.0270996
724.461060;-999.418030;-3.950;0.0256348
724.453064;-999.402039;-3.951;0.0319824
724.445007;-999.385071;-3.952;0.0212402
724.436035;-999.369019;-3.951;0.0241699
724.426025;-999.354065;-3.949;0.0229492
724.419006;-999.337036;-3.952;0.0249023
724.412048;-999.321045;-3.954;0.0263672
724.402039;-999.306030;-3.953;0.0285645
724.394043;-999.289062;-3.953;0.0222168
724.387024;-999.273071;-3.957;0.0200195
724.378052;-999.257019;-3.956;0.0319824
724.372009;-999.240051;-3.961;0.0290527
724.363037;-999.224060;-3.959;0.0234375
724.352051;-999.210022;-3.955;0.0249023
724.344055;-999.193054;-3.956;0.0256348
724.338013;-999.176025;-3.962;0.0234375
724.330017;-999.160034;-3.961;0.0263672
724.319031;-999.145020;-3.958;0.0307617
724.310059;-999.129028;-3.958;0.0249023
724.303040;-999.113037;-3.960;0.0278320
724.296021;-999.096069;-3.962;0.0227051
724.285034;-999.081055;-3.959;0.0234375
724.279053;-999.064026;-3.964;0.0263672
724.271057;-999.047058;-3.965;0.0249023
724.263062;-999.031067;-3.966;0.0241699
724.255005;-999.015076;-3.967;0.0305176
724.246033;-998.999023;-3.966;0.0312500
724.237061;-998.983032;-3.966;0.0312500
724.232056;-998.965027;-3.972;0.0310059
724.220032;-998.951050;-3.966;0.0253906
724.213013;-998.935059;-3.969;0.0227051
724.206055;-998.917053;-3.973;0.0268555
724.197021;-998.901062;-3.972;0.0224609
724.190063;-998.884033;-3.975;0.0239258
724.180054;-998.869019;-3.972;0.0280762
724.170044;-998.854065;-3.970;0.0209961
724.162048;-998.837036;-3.972;0.0302734
724.153015;-998.822021;-3.970;0.0217285
724.147034;-998.803040;-3.977;0.0300293
724.140015;-998.785034;-3.980;0.0258789
724.130005;-998.770020;-3.977;0.0314941
724.121033;-998.754028;-3.977;0.0270996
724.114014;-998.736023;-3.980;0.0236816
724.700012;-1000.017029;-3.931;0.0239258
724.694031;-1000.000061;-3.934;0.0231934
724.687012;-999.983032;-3.937;0.0197754
724.679016;-999.966064;-3.938;0.0261230
724.667053;-999.950073;-3.935;0.0234375
724.657043;-999.933044;-3.933;0.0219727
724.652039;-999.916077;-3.939;0.0261230
724.642029;-999.900024;-3.937;0.0173340
724.633057;-999.883057;-3.937;0.0222168
724.626038;-999.866028;-3.940;0.0229492
724.616028;-999.850037;-3.939;0.0297852
724.607056;-999.833069;-3.939;0.0244141
724.597046;-999.817078;-3.937;0.0244141
724.591064;-999.800049;-3.941;0.0314941
724.581055;-999.784058;-3.940;0.0195312
724.571045;-999.768066;-3.938;0.0251465
724.564026;-999.751038;-3.940;0.0190430
724.555054;-999.735046;-3.941;0.0258789
724.547058;-999.719055;-3.942;0.0224609
724.540039;-999.702026;-3.944;0.0239258
724.532043;-999.686035;-3.946;0.0302734
724.523010;-999.669067;-3.946;0.0268555
724.513062;-999.654053;-3.943;0.0302734
724.506042;-999.637024;-3.946;0.0261230
724.500061;-999.620056;-3.950;0.0253906
724.492004;-999.604065;-3.950;0.0275879
724.481018;-999.589050;-3.947;0.0178223
724.476013;-999.571045;-3.953;0.0317383
724.463013;-999.557068;-3.947;0.0290527
724.454041;-999.541077;-3.946;0.0212402
724.446045;-999.524048;-3.947;0.0212402
724.441040;-999.507019;-3.954;0.0234375
724.434021;-999.491028;-3.956;0.0268555
724.423035;-999.475037;-3.952;0.0227051
724.416016;-999.459045;-3.954;0.0368652
724.408020;-999.443054;-3.956;0.0341797
724.398010;-999.427063;-3.953;0.0212402
724.389038;-999.411072;-3.953;0.0300293
724.383057;-999.395020;-3.957;0.0270996
724.373047;-999.379028;-3.955;0.0300293
724.365051;-999.363037;-3.956;0.0227051
724.357056;-999.347046;-3.957;0.0263672
724.349060;-999.330017;-3.959;0.0270996
724.340027;-999.315063;-3.957;0.1311035
724.333008;-999.298035;-3.960;0.0234375
724.322021;-999.283020;-3.956;0.0278320
724.316040;-999.266052;-3.960;0.0227051
724.306030;-999.251038;-3.959;0.0234375
724.299011;-999.234070;-3.961;0.0241699
724.291016;-999.218018;-3.962;0.0263672
724.282043;-999.202026;-3.962;0.0263672
724.275024;-999.185059;-3.965;0.0263672
724.265015;-999.170044;-3.963;0.0249023
724.257019;-999.154053;-3.963;0.0319824
724.250061;-999.137024;-3.967;0.0268555
724.241028;-999.121033;-3.965;0.0256348
724.233032;-999.105042;-3.967;0.0275879
724.225037;-999.089050;-3.967;0.0241699
724.219055;-999.071045;-3.972;0.0578613
724.208008;-999.057068;-3.968;0.0246582
724.199036;-999.040039;-3.968;0.0261230
724.192017;-999.024048;-3.970;0.0246582
724.184021;-999.007019;-3.972;0.0317383
724.175049;-998.991028;-3.971;0.0231934
724.167053;-998.975037;-3.973;0.0380859
724.158020;-998.959045;-3.973;0.0224609
724.149048;-998.943054;-3.972;0.0288086
724.140015;-998.927063;-3.972;0.0273438
724.134033;-998.909058;-3.977;0.0251465
724.125061;-998.893066;-3.975;0.0209961
724.115051;-998.878052;-3.974;0.0258789
724.107056;-998.861023;-3.975;0.0244141
724.098022;-998.845032;-3.975;0.0168457
724.091064;-998.828064;-3.978;0.0244141
724.082031;-998.811035;-3.978;0.0292969
724.074036;-998.794067;-3.980;0.0278320
724.064026;-998.779053;-3.978;0.0263672
724.058044;-998.760071;-3.984;0.0241699
724.049011;-998.744019;-3.982;0.0268555
724.039062;-998.729065;-3.979;0.0214844
724.032043;-998.710022;-3.984;0.0349121
724.619019;-999.990051;-3.936;0.0200195
724.609009;-999.973022;-3.935;0.0312500
724.598022;-999.957031;-3.931;0.0166016
724.592041;-999.940063;-3.935;0.0249023
724.586060;-999.924072;-3.939;0.0278320
724.576050;-999.907043;-3.938;0.0180664
724.569031;-999.891052;-3.941;0.0278320
724.558044;-999.874023;-3.938;0.0251465
724.551025;-999.858032;-3.940;0.0280762
724.543030;-999.841064;-3.942;0.0280762
724.535034;-999.825073;-3.943;0.0258789
724.524048;-999.809021;-3.939;0.0217285
724.517029;-999.793030;-3.942;0.0295410
724.507019;-999.777039;-3.940;0.0219727
724.498047;-999.761047;-3.940;0.0253906
724.491028;-999.744019;-3.943;0.0231934
724.484009;-999.727051;-3.945;0.0268555
724.475037;-999.711060;-3.945;0.0246582
724.468018;-999.695068;-3.947;0.0234375
724.458008;-999.679077;-3.946;0.0290527
724.451050;-999.662048;-3.948;0.0317383
724.441040;-999.647034;-3.946;0.0283203
724.433044;-999.630066;-3.948;0.0185547
724.423035;-999.615051;-3.946;0.0256348
724.417053;-999.598022;-3.949;0.0249023
724.408020;-999.582031;-3.949;0.0249023
724.400024;-999.566040;-3.950;0.0412598
724.392029;-999.550049;-3.951;0.0249023
724.382019;-999.534058;-3.949;0.0278320
724.377014;-999.517029;-3.954;0.0234375
724.365051;-999.502075;-3.950;0.0263672
724.358032;-999.486023;-3.953;0.0234375
724.351013;-999.469055;-3.955;0.0241699
724.344055;-999.453064;-3.957;0.0219727
724.332031;-999.438049;-3.952;0.0229492
724.324036;-999.422058;-3.952;0.0229492
724.317017;-999.405029;-3.956;0.0227051
724.307007;-999.390076;-3.954;0.0214844
724.301025;-999.373047;-3.957;0.0249023
724.294006;-999.356018;-3.960;0.0241699
724.284058;-999.341064;-3.958;0.0256348
724.275024;-999.325073;-3.958;0.0241699
724.266052;-999.310059;-3.957;0.0278320
724.259033;-999.293030;-3.959;0.0270996
724.250061;-999.277039;-3.958;0.0249023
724.243042;-999.260071;-3.962;0.0297852
724.234009;-999.245056;-3.961;0.0241699
724.226013;-999.229065;-3.962;0.0234375
724.219055;-999.211060;-3.966;0.0346680
724.210022;-999.196045;-3.964;0.0297852
724.201050;-999.180054;-3.964;0.0275879
724.194031;-999.163025;-3.967;0.0234375
724.185059;-999.147034;-3.966;0.0268555
724.174011;-999.133057;-3.962;0.0297852
724.168030;-999.115051;-3.966;0.0290527
724.162048;-999.097046;-3.971;0.0268555
724.153015;-999.082031;-3.970;0.0288086
724.143005;-999.067078;-3.968;0.0212402
724.135010;-999.050049;-3.970;0.0246582
724.127014;-999.033020;-3.971;0.0295410
724.118042;-999.017029;-3.970;0.0224609
724.109009;-999.001038;-3.970;0.0246582
724.103027;-998.983032;-3.975;0.0292969
724.093018;-998.968018;-3.973;0.0288086
724.085022;-998.951050;-3.975;0.0258789
